# 3D point list with one line of data per point:
#   POINT3D_ID, X, Y, Z, R, G, B, ERROR, TRACK[] as (IMAGE_ID, POINT2D_IDX)
# Number of points: 607, mean track length: 3.62076
1436 -1.87464 0.942127 11.2333 133 72 79 0.736133 3 5962 6 5209 1 7030 5 5120 2 5875
1435 -2.02922 0.971783 11.092 128 84 81 0.741143 3 5961 4 5794 6 5207 1 7027 5 5117 2 4285
1434 -2.18156 0.981987 10.9467 178 161 151 0.180158 3 5959 4 6675
1433 -2.18601 0.979775 10.9543 178 161 151 0.850133 3 5958 4 6676 6 5199 1 8124 2 5872
1432 -3.00519 1.1706 10.2515 158 140 136 0.395799 3 5955 4 5782 6 5237 1 7123 5 7121 2 5912
1431 -2.97292 1.05912 10.2698 164 142 131 0.626743 3 5954 4 5783 6 5194 1 7071 5 5206
1430 -2.97794 1.01708 10.2643 129 68 68 0.212747 3 5953 4 5746 6 3766
1429 -2.97794 1.01708 10.2643 129 68 68 0.212747 3 5952 4 5745 6 3767
1428 -2.96966 0.977778 10.2635 163 135 131 0.324861 3 5951 4 5743 6 3757 1 5044 5 5155 2 4269
1427 -3.12045 1.07199 10.139 123 62 64 0.396814 3 5950 4 5777 1 7067 5 5204
1426 -3.14907 1.22477 10.1313 170 148 144 0.375797 3 5949 4 5780 1 7121 6 3849 5 5283
1425 -3.17343 1.24374 10.1061 174 151 145 0.671004 3 5948 4 4390 6 3844 5 5284 2 5911
1424 -3.13864 1.13747 10.1236 127 63 71 0.580896 3 5947 4 5778 6 5193 1 7119 5 7119
1423 -3.17991 1.18175 10.0926 128 69 73 0.395554 3 5946 4 5779 6 3843 1 7120 5 7120 2 5909
1422 -3.12606 1.03001 10.1332 165 145 136 0.707405 3 5943 4 5737 6 3759 1 7065 5 5202 2 4260
1421 -3.12726 1.02942 10.134 165 145 136 0.337798 3 5942 4 5738 6 3758 1 7066
1420 -3.40211 1.22877 9.9089 175 154 149 0.650027 3 5941 4 5776 6 5226 1 7116 5 5279 2 5908
1419 -3.3573 1.18927 9.94346 120 63 69 0.362988 3 5940 4 5775 6 5232 2 5902
1418 -3.48484 1.21558 9.8334 180 159 150 0.969675 3 5939 4 5770 6 3832 1 7110 5 5264
1417 -3.48373 1.2138 9.83117 180 159 150 1.17746 3 5938 4 5769 6 3833 1 7109 5 5263 2 4315
1416 -3.48693 1.1284 9.82251 177 154 148 0.623807 3 5935 4 4352 5 5255 2 5894
1415 -3.48703 1.12844 9.8218 177 154 148 0.528866 3 5934 4 4353 6 3733 1 5115 5 5254 2 5893
1414 -3.47567 1.09199 9.82752 121 65 71 0.369551 3 5933 4 5767 1 7108
1413 -3.47695 1.09219 9.82727 121 65 71 0.552273 3 5932 4 5768 6 3735 1 7107 5 7153 2 5858
1412 -3.58574 1.15933 9.74344 127 75 79 1.20476 3 5931 4 4351 1 1429 5 5258 2 5887
1411 -3.6746 1.25061 9.6704 129 73 78 1.22018 3 5930 4 4348 6 3816 1 7153 2 5889
1410 -3.63708 1.17231 9.69077 116 61 64 0.915456 3 5928 4 5766 6 5185 1 7104 5 5259 2 5884
1409 -3.66326 1.19036 9.67009 184 164 157 0.714548 3 5927 4 5763 6 3726 1 5111 5 5261 2 5881
1408 -3.50346 1.07856 9.80051 181 156 151 1.25263 3 5926 4 5734 6 3731 1 7106 5 5252 2 5857
1407 -1.25037 0.561466 11.751 127 82 77 1.41643 3 5921 4 6638 6 6139 1 8112 5 7024
1406 -1.45644 0.590917 11.5853 136 82 82 0.806567 3 5919 4 5730 2 5849
1405 -1.83347 0.611518 11.2369 160 121 116 0.755815 3 5916 4 5725 6 3695 2 5842
1404 -1.97672 0.853416 11.1299 181 165 157 0.834907 3 5915 4 5756 1 7014 2 4282
1403 -2.1915 0.81789 10.9339 125 79 74 1.2808 3 5913 4 5749 6 5195 1 8122 2 5871
1402 -2.16614 0.662413 10.9378 142 91 88 0.138114 3 5912 4 6626
1401 -2.19276 0.750641 10.9249 148 96 100 0.523543 3 5911 4 5747
1400 -2.19214 0.717508 10.9305 189 166 160 0.745005 3 5910 4 4311 6 1223 1 4943 2 4199
1399 -2.99287 0.952305 10.2416 121 62 63 0.546945 3 5909 4 5741 6 3754 1 7070 5 5153
1398 -2.99287 0.952305 10.2416 121 62 63 0.546945 3 5908 4 5742 6 3755 1 7069 5 5154
1397 -3.07428 0.910657 10.1599 172 155 147 0.637808 3 5905 4 4301 6 3751 1 7062 5 7090 2 5868
1396 -3.1593 0.891494 10.0914 165 143 136 0.307023 3 5904 4 5735 6 3749 1 7060 5 5152
1395 -3.2277 0.93259 10.0262 126 72 74 0.687949 3 5902 4 4296 6 3745 2 5862
1394 -3.30584 0.935268 9.9698 165 145 138 0.928402 3 5900 4 4286 6 3740 1 5023 5 1507 2 4252
1393 -3.34517 0.911834 9.93678 184 165 158 0.423327 3 5899 4 4285 1 5021 5 5194
1392 -3.40762 0.972543 9.87236 128 70 75 1.09996 3 5898 4 4288 6 3729 1 5019
1391 -3.42106 0.940952 9.86109 177 153 149 0.99606 3 5897 4 4282 6 3728 1 7055 5 5190 2 5853
1390 -3.51011 1.00738 9.78814 175 161 150 0.54677 3 5896 4 5732 6 5186 1 7054 5 7116 2 6762
1389 -3.49883 0.977084 9.79925 126 67 69 0.757557 3 5895 4 5733 6 3727 1 7053 5 5191
1388 -1.26639 0.500752 11.7456 164 136 132 0.988076 3 5892 4 6636 6 5174
1387 -2.08117 0.56225 11.0166 195 176 170 0.679902 3 5891 4 5721 1 6990 6 3686 5 5073
1386 4.55205 -0.192842 12.3664 178 161 172 0.548995 3 5883 4 5705 1 6970
1385 4.22143 -0.24253 12.6954 227 193 121 0.400775 3 5879 4 4237 2 5817
1384 4.09364 -0.149469 12.8624 124 116 137 1.46732 3 5878 4 5700 6 1178 1 8098 5 6948
1383 4.06971 -0.284455 12.8864 205 200 204 1.48393 3 5877 4 4233
1382 4.00929 -0.249939 13.0161 188 144 161 1.65559 3 5875 4 4235 5 6940
1381 3.62953 -0.0815004 13.4389 158 129 131 0.694583 3 5871 4 6624 1 6961
1380 3.55685 -0.157367 13.4966 102 95 89 1.56536 3 5869 4 5712 6 3667
1379 3.37129 -0.127434 13.6682 91 90 85 0.592439 3 5864 4 6623 5 6935
1378 3.32387 -0.343534 13.7077 185 169 146 0.882849 3 5861 4 4223 5 6932 2 5807
1377 4.53644 -0.241412 12.3632 168 178 188 1.57642 3 5860 4 5692 6 3678 5 6951
1376 4.35356 -0.29548 12.5652 187 199 211 0.495748 3 5858 4 5688 1 6969 5 6950 2 5816
1375 4.18955 -0.51442 12.7137 236 208 131 0.869809 3 5857 4 5682 6 5135 1 6948 5 6896 2 5801
1374 4.1673 -0.370484 12.7514 178 182 198 1.10634 3 5856 4 5683 6 5150 1 8091 5 6945 2 5815
1373 4.08189 -0.581432 12.8262 142 158 171 0.652649 3 5852 4 5678 1 4839 5 4842
1372 3.92929 -0.477602 13.0595 86 75 71 0.933457 3 5851 4 5679 6 3653
1371 3.75004 -0.465432 13.2799 137 89 79 1.67563 4 5676 2 4136 3 5850
1370 3.86843 -0.53036 13.1279 212 191 125 0.105198 3 5849 4 5677 2 4138
1369 3.80854 -0.654515 13.1557 188 163 132 1.03976 3 5848 4 6616 6 6116 2 5792
1368 3.54601 -0.59767 13.4635 106 83 69 0.798788 4 5674 6 3650 3 5847 2 5808 5 6889
1367 2.85495 -0.800178 14.1665 120 126 135 0.154953 3 5845 4 5672 5 7993
1366 4.44958 -0.806712 12.441 210 150 160 1.61542 3 5844 4 6602 2 4075
1365 4.18832 -0.661426 12.7095 210 166 140 1.07917 3 5842 4 5669 6 3657 1 8075 5 6893 2 5799
1364 4.21576 -0.722168 12.6749 76 68 94 1.38213 3 5841 4 5666 6 3639 1 6925 5 4848 2 5798
1363 4.126 -0.807908 12.7527 76 66 93 1.33863 3 5838 4 5665 6 5127 1 8072 5 6854 2 5794
1362 4.0149 -0.855422 12.9118 206 219 227 1.77185 3 5836 4 5663 6 3632 1 8055
1361 3.66716 -1.02171 13.2662 80 70 74 0.729771 3 5833 4 5641 6 5113 1 8053 5 6841 2 5764
1360 3.62178 -0.938062 13.3314 58 57 53 1.46654 3 5829 4 4153 6 1076 1 6872 2 4052
1359 3.21631 -0.93951 13.766 199 164 96 1.37586 3 5826 4 4152
1358 3.21631 -0.93951 13.766 199 164 96 1.37586 3 5825 4 4151
1357 0.527871 -0.975163 13.3119 160 151 142 1.22696 3 5823 4 5653 6 5107 1 6862
1356 4.68618 -1.02503 12.1782 199 190 178 0.920482 3 5820 4 7206 6 6091
1355 4.35602 -1.11897 12.5008 85 60 75 0.889413 3 5814 4 6586 5 6810 2 5752
1354 4.24581 -1.11698 12.6196 95 80 104 1.32489 3 5813 4 6585 6 5120 1 8024 5 6809 2 5775
1353 3.82106 -1.11665 13.0999 151 128 98 1.40869 3 5809 4 5643 1 8018 5 6843 2 5769
1352 3.63471 -1.30243 13.2583 213 198 208 1.05537 3 5804 4 5609 6 3592 1 6804
1351 3.21416 -1.19012 13.7336 206 202 192 1.50879 3 5803 4 5634 6 3591 1 6803 5 6800 2 5759
1350 -1.85373 -0.49483 10.9684 204 195 185 1.84873 3 5801 4 4138 6 5121 1 8081 5 5004 2 647
1349 4.62627 -1.21223 12.1969 225 219 215 2.05491 3 5796 4 5587 6 3575 1 6821
1348 4.32414 -1.25398 12.5271 83 72 89 1.35912 3 5795 4 5617 6 3573 1 8023 5 6808 2 5751
1347 3.91821 -1.33614 12.9584 176 159 130 0.874239 3 5793 4 4080 6 985 1 6810 2 5750
1346 3.49184 -1.45623 13.4349 188 93 91 0.988063 3 5789 4 5608 2 6693
1345 0.213342 -1.42235 12.9749 189 180 150 1.09449 3 5788 4 6580 6 5094 1 7984 5 6834
1344 -0.302511 -1.38959 12.4388 187 171 145 0.948892 3 5785 4 5604 6 5071
1343 -2.42433 -0.802046 10.3872 112 103 108 0.228825 3 5784 4 6591
1342 -2.41969 -0.797812 10.3802 112 103 108 1.05988 3 5783 4 6592 2 5705
1341 -3.61581 -0.476984 9.56948 204 195 186 1.66635 3 5782 4 4104 6 3576 1 6956 5 7007
1340 3.43008 -1.8245 13.3705 228 214 203 0.795074 3 5773 4 5581 6 5082 5 6749 2 5735
1339 3.22128 -2.03868 13.5775 179 118 121 0.897727 3 5770 4 3946 5 6710 2 5718
1338 -0.345848 -1.47233 12.3911 83 74 59 1.07095 3 5769 4 6576 6 5070 1 7981 5 6833 2 5710
1337 -0.654743 -1.59016 12.0265 151 131 120 0.394986 3 5768 4 5572
1335 -2.00712 -1.24738 10.8559 181 115 83 0.84196 3 5766 4 6539 6 5067 1 8004
1334 -2.06855 -1.15417 10.8144 179 121 93 1.14198 3 5765 4 5599 6 5065 1 8044 5 6928 2 5673
1333 -2.18848 -1.16741 10.6844 146 104 84 0.414536 3 5764 4 5594 6 5062 1 6848
1332 -2.27001 -1.05461 10.5906 200 193 176 1.5969 3 5763 4 6570 6 6043 5 8054 2 6638
1331 -2.87013 -0.996123 10.1059 75 74 90 1.86945 4 4033 6 5060 4 6563 5 6991 1 8714 2 6634
1330 3.50441 -2.12795 13.2543 167 165 117 0.878321 3 5752 4 5509 6 3474 5 7860 2 5722
1329 3.54936 -2.191 13.195 199 133 119 0.919716 3 5751 4 5508 6 3381 5 6665 2 5723
1328 3.31941 -2.20014 13.4444 85 86 90 0.599176 3 5748 4 5502 6 3471 5 6662 2 5714
1327 -0.116447 -1.87216 12.569 188 175 139 0.906507 3 5746 4 6551 6 5026 1 7904
1326 -0.116447 -1.87216 12.569 188 175 139 0.906507 3 5745 4 6552 6 5027 1 7903
1325 -0.377843 -1.82555 12.2946 192 182 145 0.839375 3 5741 4 6506 6 5021 1 7943
1324 -0.430687 -1.71628 12.2655 183 169 130 0.941658 3 5740 4 5577 6 5022 1 7944
1323 -0.493311 -1.73026 12.1779 77 81 102 1.31598 3 5739 4 5573 6 5019 5 6792 2 5680
1322 -0.487239 -1.94628 12.177 131 69 62 1.14409 3 5738 4 6505 6 4965
1321 -0.535753 -1.85424 12.1371 189 173 136 0.564846 3 5737 4 5543 6 5017
1320 -0.638465 -1.89257 12.0128 104 70 61 0.480349 3 5736 4 6502 1 7899 2 5641
1319 -1.9034 -1.49667 10.9591 199 184 143 0.923152 3 5733 4 5569 6 5011 1 7977
1318 -1.88984 -1.5478 10.9735 167 134 89 1.46101 3 5732 4 5536 6 5010 1 7976 2 5632
1317 -3.14678 -1.01834 9.89326 207 194 155 0.604093 3 5726 4 5591 6 3492 1 6909 5 6989 2 5623
1316 -3.17916 -1.05427 9.85755 206 198 147 0.507193 3 5725 4 5565 6 5057 1 8039 2 6603
1315 -3.14971 -1.10309 9.88028 207 203 158 0.548234 3 5724 4 5566 6 3490 1 8038 5 6985 2 5622
1314 -3.18219 -1.09934 9.85433 160 146 123 0.774929 3 5723 4 5564 6 5056 1 8037
1313 -3.20709 -1.07181 9.83367 179 113 89 0.908012 3 5722 4 3975 6 5055 1 6843 5 6986 2 5621
1312 -3.34096 -0.973804 9.72705 153 170 152 0.724979 3 5721 4 5589 1 8063 5 6990 2 5618
1311 4.43702 -2.12767 12.2619 182 94 90 0.456381 3 5714 4 6433
1310 4.35354 -2.14341 12.3507 171 164 130 1.24327 3 5712 4 5475 6 3391 5 6670 2 5697
1309 4.11449 -2.18219 12.6003 74 62 64 0.913386 3 5709 4 3803 6 685 5 4459 2 3932
1308 3.62182 -2.3449 13.11 112 70 74 1.55856 3 5707 4 5469 6 3375 5 6663 2 5694
1307 3.50322 -2.49191 13.213 226 217 199 0.729211 3 5705 4 5463 6 4925 5 6620 2 5693
1306 -0.92041 -1.82241 11.6682 200 175 105 0.97922 3 5696 4 5541 6 5014 1 7937 5 6784
1305 -0.804935 -2.01958 11.8063 163 101 79 0.849767 3 5695 4 6451 6 5960
1304 -1.73984 -1.74281 11.0999 211 195 162 0.150712 3 5690 4 5538
1303 -1.77129 -1.70505 11.0669 194 173 142 0.875847 3 5687 4 5537 6 4958 1 7936 5 6828
1302 -1.88724 -1.7756 10.9692 218 195 161 0.669391 3 5686 4 5534 6 4954 1 7932 5 6827
1301 -1.88603 -1.77437 10.9683 218 195 161 0.949768 3 5685 4 5533 6 4953 1 7933 5 6826 2 5594
1300 -2.36139 -1.52819 10.5172 187 119 110 0.62272 3 5684 4 6485 6 5993
1299 -2.31821 -1.64873 10.5371 210 197 180 0.544781 3 5682 4 3919 5 6873
1298 -2.69099 -1.32217 10.2155 215 203 160 0.654956 3 5680 4 890 6 3418 1 6784 5 6921
1297 -2.69099 -1.32217 10.2155 215 203 160 0.654956 3 5679 4 889 6 3417 1 6783 5 6920
1296 -2.92136 -1.29055 10.0431 206 194 156 1.29715 3 5678 4 3977 6 4999 1 8000 5 4958 2 3724 3 516
1295 -2.95439 -1.34029 10.0144 72 71 78 0.82928 3 5677 4 3911 6 3411 1 6776 5 6916 6 4998 2 5583
1294 -2.87457 -1.44409 10.069 191 187 149 0.418902 3 5676 4 5526 5 6915
1293 -3.15392 -1.19019 9.86616 204 199 162 0.575272 3 5675 4 5562 6 4996 1 8036 5 6963 2 5582
1292 -3.92182 -1.09728 9.22146 97 111 111 2.58003 4 3959 6 4987 5 6993 3 5669
1291 -3.93594 -1.10799 9.19161 163 177 160 2.34325 3 5668 4 3958 6 696 5 1152 2 5552
1290 4.28416 -2.51207 12.3866 101 107 131 0.700321 3 5665 4 3674 5 6628 2 5656
1289 3.74451 -2.83719 12.9177 103 82 89 1.04925 3 5661 4 5395 6 4878 2 5653
1288 3.60668 -2.76971 13.0775 87 76 82 0.239334 3 5659 4 3734
1287 3.4617 -2.934 13.2362 223 216 200 0.982741 3 5656 4 5392 2 6623
1286 -1.62792 -1.94063 11.1623 191 165 137 0.990818 3 5653 4 5491 6 4957 1 7892 5 4625
1285 -1.94601 -1.89716 10.9199 218 204 177 0.431757 3 5651 4 5488
1284 -2.68462 -1.78664 10.1787 118 135 126 0.614509 3 5648 4 5487 6 3307 5 6824
1283 -2.87682 -1.59307 10.0257 179 111 88 1.38793 3 5647 4 3909 6 3306 1 7965 2 3665
1282 -2.97477 -1.56523 9.95432 182 119 115 1.77062 3 5646 4 3907 6 3301 1 7964
1281 -3.03757 -1.53594 9.92953 181 118 113 1.71143 4 3904 6 3302 1 6731
1280 -3.35312 -1.40243 9.67033 186 117 101 0.852911 3 5641 4 3901 5 4874
1279 -3.26166 -1.55875 9.73153 190 184 152 0.638908 3 5640 4 5485 6 4942 1 7962 5 6910
1278 -3.5458 -1.40263 9.50348 216 198 160 0.796744 3 5639 4 738 6 3287 1 6773 5 4942
1277 -3.58775 -1.44811 9.47415 217 201 185 1.031 3 5638 4 3896 1 7993 6 4937
1276 -3.89219 -1.38767 9.21597 205 196 165 1.32545 3 5636 4 3891 6 3280 5 6958 1 6770
1275 3.95418 -2.98905 12.6271 195 96 96 0.00860821 3 5627 4 3589
1274 3.46551 -2.99943 13.2058 237 228 213 1.29226 3 5625 4 3662 6 3195
1273 3.43475 -2.98763 13.2281 134 114 107 0.213364 3 5623 4 5391
1272 3.34532 -3.06142 13.3242 197 99 99 0.445987 3 5622 4 3660 6 3142 2 5605
1271 -0.302783 -2.86638 12.3108 211 194 163 0.561182 3 5618 4 6384 6 5853
1270 -0.907836 -2.54783 11.7026 211 200 182 1.00384 3 5617 4 6382
1269 -1.55883 -2.20576 11.1671 67 74 71 1.23563 3 5613 4 5453 6 4912 5 4571
1268 -1.60862 -2.37012 11.1353 214 180 112 0.61798 3 5612 4 3772 6 4857
1267 -1.61678 -2.43332 11.1381 182 113 112 0.308678 3 5611 4 3701 6 3172
1266 -1.87053 -2.2227 10.9466 222 206 191 1.23842 3 5610 4 6405 6 6637 5 8666
1265 -2.99701 -1.87504 9.88892 171 113 81 0.888262 3 5606 4 5450 6 4901 1 7887 5 6821
1264 -3.16932 -1.83691 9.76384 153 99 87 1.24189 3 5605 4 3765 1 6624 5 4699
1263 -3.3632 -1.64836 9.63008 120 109 113 0.800441 3 5602 4 3824 6 4939 1 7919 5 6867
1262 -3.53015 -1.64597 9.50024 218 187 143 0.549916 3 5601 4 3820
1261 -3.52691 -1.64305 9.49289 218 187 143 1.00427 3 5600 4 3819 6 3285
1260 4.33838 -2.98982 12.2305 208 189 165 1.67524 3 5599 4 5287 6 4826 2 5611
1259 0.0308785 -3.23996 12.617 173 175 151 1.45028 3 5597 4 5385 6 4782
1258 -0.126426 -3.24331 12.4869 216 194 150 1.23385 3 5594 4 5381 6 4774
1257 -0.725958 -2.96682 11.9212 204 192 155 0.809288 3 5592 4 6354 6 5850
1256 -0.676795 -3.076 11.9644 207 176 121 0.729784 3 5591 4 6351 6 5804
1255 -0.999032 -2.83656 11.6533 208 195 156 0.399913 3 5588 4 6346
1254 -0.999032 -2.83656 11.6533 208 195 156 0.399913 3 5587 4 6347
1253 -1.11849 -2.82189 11.5036 202 189 154 0.795069 3 5586 4 5373 6 4808
1252 -1.11849 -2.82189 11.5036 202 189 154 0.795069 3 5585 4 5374 6 4809
1251 -2.73632 -2.25665 10.1229 132 145 135 0.438728 3 5581 4 5416
1250 -2.92839 -2.06885 9.90748 207 181 109 0.633408 3 5578 4 5449 6 4851 5 6775
1249 -3.13845 -1.96199 9.7424 202 194 173 0.873617 3 5576 4 3763 6 3217 1 6622 5 4697
1248 -3.26457 -1.89581 9.6684 75 73 68 0.785091 3 5575 4 5447 5 4698
1247 0.0490569 -3.49033 12.6418 201 191 155 0.650058 3 5566 4 5341 6 4778
1246 0.0490569 -3.49033 12.6418 201 191 155 0.650058 3 5565 4 5342 6 4777
1245 -0.0279861 -3.47494 12.5584 194 189 147 1.11925 3 5564 4 5338 6 4775
1244 -0.433798 -3.29479 12.1758 208 189 140 0.419029 3 5561 4 6312
1243 -0.604766 -3.22389 12.0316 202 189 141 1.09904 3 5559 4 6311 6 4769
1242 -0.599421 -3.34382 12.0294 104 76 64 0.993991 3 5556 4 5335 6 4766
1241 -0.599421 -3.34382 12.0294 104 76 64 0.993991 3 5555 4 5334 6 4765
1240 -0.794929 -3.24214 11.8427 201 174 97 1.03448 3 5552 4 5333 6 4761
1239 -0.80538 -3.28198 11.8502 97 75 71 0.0876146 3 5551 4 209
1238 -2.10398 -2.67563 10.727 213 196 163 0.897479 3 5546 4 5370 6 4800 5 6647
1237 -2.89041 -2.28167 9.92913 198 195 152 0.755843 3 5539 4 5414 6 4849 5 7873
1236 -3.18068 -2.14896 9.71096 89 61 57 1.6091 3 5538 4 3685 6 4845 5 6771
1235 -3.33447 -2.12911 9.60084 78 67 63 1.06468 3 5535 4 3682 6 4838
1234 -3.33447 -2.12911 9.60084 78 67 63 1.06468 3 5534 4 3683 6 4837
1233 -3.38635 -2.11916 9.55264 85 74 72 0.9797 3 5532 4 3680 6 3157
1232 -3.38467 -2.11817 9.55062 85 74 72 0.793645 3 5531 4 3679 6 3156 5 6766
1231 -3.50385 -1.98144 9.4479 191 128 118 0.719013 3 5530 4 3755 6 4834
1230 -3.47489 -2.05834 9.47403 224 205 184 1.20804 3 5529 4 3678 6 338 5 6813
1229 -3.66489 -2.00417 9.33032 221 207 183 0.495284 3 5528 4 3675
1228 2.44783 5.30654 10.2519 85 72 70 1.82063 3 5101 4 5191
1227 0.249803 3.46639 8.21423 94 89 86 1.47872 3 5014 4 5045 6 4316 2 4870
1226 0.249803 3.46639 8.21423 94 89 86 1.47872 3 5013 4 5046 6 4317 2 4871
1225 0.192875 3.46799 8.18019 96 91 85 1.54115 3 5011 4 5040 6 2439 1 2577
1224 0.18975 3.46938 8.18281 96 91 85 1.32073 3 5010 4 5039 6 2438 2 2480
1223 0.146321 3.47249 8.16371 90 83 77 1.27804 3 5007 4 5038 6 2435 2 2483
1222 0.162739 3.40353 8.15329 35 27 25 0.904902 3 5006 4 5035 6 2384
1221 0.15461 3.37177 8.14873 28 20 18 1.0584 3 5005 4 5034 6 2383
1220 0.0445506 3.37742 8.09404 40 35 32 0.809301 3 5004 4 5027 6 2382
1219 0.150054 3.25107 8.12982 44 39 36 1.59203 3 4964 4 4994 6 2381 1 2523
1218 0.132936 3.26112 8.12172 31 25 25 0.871802 3 4962 4 4992 6 2377
1217 0.199403 3.08193 8.13372 36 31 28 1.57171 3 4960 4 4960 6 2326 1 2519 2 4806
1216 0.316909 2.94881 8.17058 192 187 170 0.360638 3 4939 4 4961 6 4270
1215 0.305858 2.92648 8.16339 26 14 17 0.96568 3 4938 4 4915 6 2317 1 2461
1214 0.305858 2.92648 8.16339 26 14 17 0.96568 3 4937 4 4914 6 2318 1 2462
1213 0.300642 2.8962 8.15718 194 184 174 1.25473 3 4936 4 6036 6 4267 1 2460
1212 0.166117 3.03121 8.11548 37 31 35 1.41457 3 4933 4 4959 2 2326
1211 0.171087 3.0306 8.10578 37 31 35 0.318697 3 4932 4 4958
1210 0.157668 2.99177 8.10433 31 22 25 1.50644 3 4931 4 4955 6 2313 2 2324
1209 0.157668 2.99177 8.10433 31 22 25 1.50644 3 4930 4 4954 6 2312 2 2323
1208 0.101908 2.90544 8.06106 32 22 23 1.52713 3 4929 4 6032 6 4219 1 5600
1207 -0.0699539 2.97906 7.99191 203 197 195 0.64276 3 4927 4 2840 1 2514
1206 -0.0286794 2.90759 8.00156 207 203 195 1.49617 3 4922 4 4897 6 2226 1 5596 5 2142 2 2251
1205 1.94375 3.15507 12.2872 96 50 34 2.08643 3 4890 6 2282 5 1693
1204 1.88754 3.11844 12.3088 114 69 45 1.40681 3 4888 4 4939 6 4204 1 5436
1203 0.647472 2.91097 10.4871 115 45 43 0.676844 3 4886 4 6015 6 5414 1 2186
1202 0.313614 2.80844 8.15471 67 61 61 0.784222 3 4885 4 6034 6 4222 1 2404
1201 0.188259 2.84728 8.0921 196 191 179 0.877097 3 4882 4 4906 6 2232 1 2446
1200 -0.0136907 2.8298 7.9936 63 58 54 0.983082 3 4880 4 4894 6 2223 1 2444
1199 1.64558 2.84491 12.3096 153 145 132 1.47207 3 4849 4 6019 1 5394 5 1578
1198 2.1558 2.40499 12.1874 141 155 142 1.14749 3 4795 4 4769 6 2054 1 1828 5 1483
1197 1.67318 2.54378 12.2739 143 155 141 1.3314 3 4794 4 4818 1 5332 5 1481
1196 1.61832 2.54086 12.2875 137 147 132 1.39179 3 4793 4 4816 1 5330 6 4125 5 1480
1195 1.61893 2.32846 12.3096 41 64 48 1.06723 3 4792 4 4760 6 4122
1194 -1.71414 2.33881 11.4387 57 37 38 0.209158 3 4775 4 5924
1193 -1.71414 2.33881 11.4387 57 37 38 0.209158 3 4774 4 5925
1192 -2.46225 2.37544 10.7777 74 56 52 0.889532 3 4765 4 4739 1 5389
1191 2.9989 2.11034 11.9939 45 57 35 0.322902 3 4749 4 5971
1190 2.68253 2.10951 12.0491 192 186 174 1.04169 3 4741 4 4771 5 1411 2 1646
1189 2.5772 2.0011 12.0442 198 190 186 0.921403 3 4736 4 4715 6 1991 1 1689 5 1350 2 1639
1188 -1.12508 2.05795 11.9666 67 50 42 0.503887 3 4727 4 5928
1187 -1.49424 2.04965 11.6164 115 63 65 1.04957 3 4722 4 5893 6 5310 1 5259 5 1567 2 4602
1186 -1.58211 2.0455 11.5354 128 77 74 0.7624 3 4721 4 4630 1 5254 5 1682 2 1804
1185 -2.8663 2.045 10.4132 118 67 68 0.340775 3 4714 4 4614
1184 -2.87254 2.0432 10.4239 118 67 68 0.986842 3 4713 4 4613 1 1940 2 4591
1183 -2.92381 2.05679 10.3906 167 150 143 1.26607 3 4712 4 2115 1 1938 5 1858 2 6069
1182 -2.99451 2.18673 10.312 120 68 72 0.96861 3 4711 4 4675 1 5385 2 6085
1181 -2.99398 2.18425 10.3118 120 68 72 1.01017 3 4710 4 4676 1 5384 5 1869
1180 -3.06746 2.24396 10.2586 104 58 60 0.740199 3 4707 4 4677 1 5386 5 5397 2 4645
1179 -3.05999 2.13707 10.2636 113 63 66 0.617755 3 4706 4 4673 6 4013 1 5381 2 4590
1178 -3.23568 2.22505 10.1117 183 153 147 0.592634 3 4705 4 2280 1 2062 5 1969 2 4636
1177 -3.30647 2.20197 10.0407 118 67 70 0.321026 3 4704 4 4667 1 5417
1176 -3.2397 2.1442 10.109 119 60 63 0.681911 3 4703 4 4669 1 5377 5 5393 2 6065
1175 -3.31569 2.01469 10.032 171 144 141 0.397619 3 4699 4 2074 6 1700 1 1909
1174 -3.36738 2.16479 9.98822 124 73 74 0.484355 3 4697 4 4663
1173 -3.43543 2.03044 9.94292 115 65 68 0.454213 3 4689 4 2060 1 5369 2 4576
1172 2.80418 1.9543 11.9955 198 191 181 1.01881 3 4682 4 4713 6 4089 5 1358 2 1643
1171 2.6304 1.85235 12.0189 196 192 181 0.71737 3 4675 4 4708 6 4083 1 5195
1170 2.52829 1.85346 12.0358 202 195 185 1.14461 3 4674 4 4646 5 1343 2 4482
1169 2.34509 1.95499 12.0864 196 189 179 1.083 3 4672 4 5934 6 4084 1 5190 5 1339 2 4542
1168 2.28373 1.95082 12.103 198 195 183 1.06483 3 4669 4 4700 1 5185 5 1337
1167 2.25219 1.95401 12.1097 195 193 181 1.21374 3 4668 4 5933 6 4077 1 5186 5 1336 2 4540
1166 2.32556 1.81317 12.0733 134 124 126 1.0369 3 4667 4 5908 6 1979 1 5188 5 1332 2 4480
1165 2.32556 1.81317 12.0733 134 124 126 1.0369 3 4666 4 5907 6 1978 1 5187 5 1331 2 4479
1164 1.9227 1.95946 12.1683 181 167 158 1.05159 3 4662 4 4695 1 5180 5 1404
1163 1.93635 1.86382 12.1574 44 49 36 1.42087 3 4661 4 4642 6 4041 1 5178 5 1326
1162 1.93148 1.75541 12.1626 84 81 59 0.549311 3 4658 4 4641 6 4040
1161 -1.5639 1.88593 11.5431 182 164 152 0.816005 3 4645 4 4627 6 3978 1 5248 5 1558
1160 -1.56647 1.8864 11.5479 182 164 152 0.962407 3 4644 4 4626 6 3979 1 5247 5 1557 2 4525
1159 -1.61979 1.92695 11.4974 182 163 149 0.915029 3 4641 4 4629 6 3970 1 5251 5 1559 2 4526
1158 -1.6374 1.90264 11.4761 135 79 78 1.11865 3 4640 4 4623 6 1754 1 5249
1157 -1.6374 1.90264 11.4761 135 79 78 1.11865 3 4639 4 4622 6 1755 1 5250
1156 -1.69168 1.71689 11.4316 180 157 149 1.03291 3 4637 4 4552 6 1751 1 5170 5 1556 2 1456
1155 -2.7612 1.83374 10.5216 112 62 65 0.85627 3 4632 4 4540 1 1779 5 1769 2 4520
1154 -2.82177 1.8187 10.4626 169 145 141 0.745852 3 4631 4 4538 1 5319 5 1756 2 1574
1153 -2.82186 1.81899 10.4622 169 145 141 0.800807 3 4630 4 4537 1 5320 2 1573
1152 -2.88247 1.8288 10.4104 168 137 135 0.810188 3 4628 4 4535 1 1773 5 1763 2 4519
1151 -2.88247 1.82912 10.4109 168 137 135 0.757099 3 4627 4 4536 6 1720 1 1772 5 1762 2 4518
1150 -2.93728 1.7558 10.3564 118 58 60 0.736524 3 4626 4 4531 1 5314 2 4517
1149 -2.99919 1.94271 10.3121 172 145 141 0.599368 3 4623 4 2095 1 1768 5 1852 2 4516
1148 -3.01758 1.94469 10.2841 106 55 57 0.502174 3 4622 4 4606 1 5318
1147 -3.01716 1.94504 10.2826 106 55 57 0.515164 3 4621 4 4605 6 1713 1 5317
1146 -3.0946 1.97083 10.2331 170 142 139 0.794665 3 4619 4 4600 1 1918 2 4584
1145 -2.95827 1.7688 10.344 162 145 138 0.811009 3 4618 4 4527 1 7209 5 1758 2 4513
1144 -2.95819 1.76883 10.3423 162 145 138 0.811777 3 4617 4 4528 6 3953 1 7208 5 1757 2 4512
1143 -3.2632 1.91578 10.0851 187 159 155 0.625705 3 4614 4 4598 6 1695 1 5372 5 1851 2 4511
1142 -3.26158 1.83121 10.0866 181 151 147 0.741714 3 4611 4 1908 1 1754 5 1844
1141 -3.26158 1.83121 10.0866 181 151 147 0.741714 3 4610 4 1907 1 1753 5 1843
1140 -3.283 1.8364 10.0596 182 153 149 0.348565 3 4609 4 4524 5 1845
1139 -3.41606 1.97595 9.95446 174 146 143 0.789162 3 4605 4 4593 1 5361 6 1686 5 1953 2 4573
1138 -3.48288 1.9869 9.89657 128 77 76 0.530351 3 4602 4 4586 1 5365 2 6064
1137 -3.48288 1.9869 9.89657 128 77 76 0.530351 3 4601 4 4585 1 5364 2 6063
1136 -3.59309 1.97236 9.78663 124 68 71 0.196169 3 4596 4 4584
1135 -3.60128 1.97345 9.79751 124 68 71 1.37707 3 4595 4 4583 1 5357 5 5389
1134 -3.60742 1.93924 9.7915 182 154 148 0.660487 3 4593 4 4582 2 4495
1133 -3.75766 1.927 9.66396 117 64 66 1.73331 3 4588 4 4577 6 1664 1 5349 5 1940 2 1529
1132 -3.75564 1.92399 9.66044 117 64 66 1.4602 3 4587 4 4576 6 1665 1 5350 5 1941
1131 -3.74532 1.84462 9.66736 182 167 158 0.825048 3 4586 4 4501 6 1661 1 5346 5 1935 2 4493
1130 -3.74332 1.81138 9.66666 180 165 154 0.944456 3 4585 4 4500 5 1933 2 4492
1129 2.6957 1.54726 11.9824 144 165 146 0.693946 3 4582 4 4571 1 5099 5 1290 2 1360
1128 2.5826 1.54719 12.0039 154 175 156 0.672379 3 4581 4 5874 2 4414
1127 2.5826 1.54719 12.0039 154 175 156 0.672379 3 4580 4 5873 2 4413
1126 2.53929 1.55661 12.0154 106 127 108 0.728181 3 4579 4 5872 5 5064 1 5093
1125 2.28469 1.66074 12.0684 42 61 42 1.28318 3 4577 4 5903 5 1329
1124 -1.25228 1.4921 11.8077 120 75 76 0.673466 3 4570 4 4562 6 3925
1123 -1.2518 1.49147 11.8067 120 75 76 1.08921 3 4569 4 4561 6 3924 1 5081 5 1397 2 1466
1122 -1.31442 1.47149 11.7386 120 73 75 0.575934 3 4567 4 4558 1 5077 5 1394
1121 -1.33525 1.41987 11.7321 134 82 81 1.18847 3 4566 4 5836 6 3921 5 1392 2 4410
1120 -1.70882 1.63298 11.4133 185 155 145 0.766076 3 4562 4 4551 6 5276 1 5166 5 1472 2 4461
1119 -1.98051 1.53633 11.1693 130 82 80 0.722059 3 4556 4 5859 5 5212 2 5993
1118 -3.19458 1.67546 10.1307 113 69 70 0.484276 3 4544 4 4518 6 1580 1 1747 5 1747 2 4449
1117 -3.19458 1.67546 10.1307 113 69 70 0.484276 3 4543 4 4517 6 1579 1 1746 5 1746 2 4448
1116 -3.20732 1.62906 10.1167 122 72 73 0.461821 3 4542 4 4516 6 3902 1 5238 5 1745 2 4437
1115 -3.29495 1.70201 10.0451 170 150 143 0.570485 3 4541 4 4508 6 3899 1 5309 5 5316
1114 -3.26216 1.66588 10.0723 170 150 143 0.365659 3 4539 4 4513 6 1577 1 5308 5 1744 2 4441
1113 -3.27539 1.64225 10.0547 125 70 75 0.548471 3 4538 4 4512 6 1575 1 5307 5 1743 2 4440
1112 -3.22445 1.61373 10.0929 175 153 142 0.00452318 3 4537 4 4515
1111 -3.22708 1.61359 10.0958 175 153 142 0.67558 3 4536 4 4514 6 1578 1 5237 2 1410
1110 -3.27358 1.58522 10.0519 115 61 61 0.66641 3 4534 4 4454 6 1571 1 5235 5 5313 2 5980
1109 -3.75302 1.67633 9.64028 184 164 157 0.893283 3 4528 4 4496 6 1558 1 5299 2 5975
1108 -3.7322 1.65593 9.65432 109 62 64 0.734035 3 4527 4 1875 6 1560 1 5301 5 1833 2 4433
1107 -3.71159 1.64977 9.67726 181 149 144 0.954483 3 4524 4 4498 6 1556 1 5302 2 1403
1106 -3.70772 1.60328 9.67441 179 150 146 0.988788 3 4523 4 1773 6 1554 1 1725 5 1826 2 4430
1105 -3.69274 1.55244 9.67962 120 70 71 0.779581 3 4520 4 4443 1 5293 2 5976
1104 -3.74595 1.542 9.63229 187 167 160 0.933631 3 4518 4 4441 6 1549 1 5290 5 5348 2 5937
1103 -3.79977 1.60616 9.59237 128 71 77 0.930517 3 4517 4 1770 6 1550 1 5296 5 1822 2 4420
1102 -3.7826 1.53681 9.60018 180 163 155 1.02633 3 4516 4 1768 6 1547 1 5288 5 1820 2 4384
1101 -3.78149 1.53653 9.59933 180 163 155 0.928592 3 4515 4 1769 6 1546 1 5287 2 4383
1100 -1.1953 1.14885 11.8292 184 159 152 1.47802 3 4507 4 1738 6 1536
1099 -1.37694 1.13822 11.6652 129 79 78 0.351386 3 4506 4 4431
1098 -2.03427 1.38839 11.1179 130 80 79 0.64964 3 4499 4 4472 1 5066 5 1464
1097 -2.09734 1.38243 11.0662 182 151 146 0.969679 3 4493 4 4471 1 5064 5 1465 2 1332
1096 -2.09601 1.38199 11.061 182 151 146 0.208125 3 4492 4 4470
1095 -2.14128 1.3531 11.0252 121 71 68 1.96918 3 4491 4 4465 5 1458 2 4406
1094 -2.0915 1.22506 11.0586 135 90 87 0.652995 3 4490 4 5796 6 3867 1 7076 5 1456 2 4351
1093 -2.73258 1.39577 10.508 124 74 75 0.406897 3 4489 4 4460 1 5159
1092 -2.73352 1.39665 10.5099 124 74 75 0.488073 3 4488 4 4459 1 5158 2 4403
1091 -2.74386 1.35589 10.502 128 80 80 1.25371 3 4487 4 1799 1 7126 5 5211 2 4402
1090 -2.76782 1.36196 10.4771 184 155 151 0.68322 3 4486 4 4458 1 5157 5 1543 2 1313
1089 -3.21089 1.27496 10.0877 174 148 144 0.616095 3 4480 4 1654 1 1464
1088 -3.29358 1.28912 10.0074 121 69 69 0.536178 3 4476 4 4373
1087 -3.29186 1.25532 10.0135 171 143 137 0.768659 3 4475 4 4371 6 3842 1 7118 5 5277
1086 -3.36989 1.34414 9.95237 176 144 139 0.583347 3 4472 4 4446 6 1447 1 5233 5 1660 2 1303
1085 -3.36408 1.26477 9.94582 177 155 149 0.33468 3 4471 4 1641 6 3840 2 4326
1084 -3.36413 1.26482 9.94669 177 155 149 0.309801 3 4470 4 1642 2 4325
1083 -3.49197 1.32125 9.83294 181 157 150 0.765425 3 4468 4 4363 6 1429 1 5226 5 1644 2 4320
1082 -3.6848 1.50404 9.68725 127 75 79 0.808355 3 4467 4 4442 6 3889 1 5291 5 5344 2 5943
1081 -3.65852 1.45565 9.69205 190 161 160 1.29563 3 4465 4 1764 6 3830
1080 -3.66441 1.4154 9.69539 184 159 154 1.13122 3 4464 4 4440 6 1419 1 5221 5 1734 2 4387
1079 -3.60554 1.33162 9.74057 191 161 154 0.92637 3 4462 4 4361 1 5224 5 1730
1078 -3.75536 1.47095 9.6204 115 65 68 1.01477 3 4460 4 4437 2 5933
1077 -3.77727 1.48846 9.5993 188 165 159 0.939707 3 4459 4 1759 6 1416 1 1715 2 4381
1076 -3.78666 1.46222 9.59169 114 65 68 1.09188 3 4457 4 4436 6 3823 1 5214 5 1817 2 5932
1075 -3.6973 1.39611 9.66776 177 157 150 1.18712 3 4456 4 1760 1 5218
1074 -3.71083 1.39478 9.64481 183 158 153 0.709951 3 4455 4 4438 1 5216
1073 -3.75564 1.39754 9.61259 192 174 169 0.87078 3 4453 4 4434 1 5213 5 5304 2 5931
1072 -3.74701 1.32994 9.6136 119 73 75 1.37154 3 4451 4 1606 1 5208 6 3815 5 5303
1071 -1.2817 0.923375 11.7528 186 161 154 0.958166 3 4448 4 5806 6 3813 1 7023 2 4295
1070 -1.3674 0.991545 11.6723 137 88 83 0.797535 3 4446 4 4430 1 1154 5 1312
1069 -1.56724 0.869275 11.4574 163 128 122 0.257195 3 4440 4 1569
1068 -1.71475 1.07583 11.3794 182 154 150 1.86676 3 4439 4 1721 6 1493 1 1150
1067 -1.76939 1.08366 11.3265 183 157 153 0.813232 3 4437 4 4419 6 1488 5 1381 2 4358
1066 -1.71434 0.889379 11.355 163 126 120 0.364103 3 4433 4 4325
1065 -1.81101 0.982535 11.2845 133 83 82 1.13686 3 4431 4 4413 1 4991 2 1111
1064 -1.77469 0.896448 11.3242 157 122 116 0.188905 3 4430 4 4323
1063 -1.89544 0.91018 11.215 176 147 141 1.25214 3 4427 4 4322 1 1133 6 1366 2 4286 5 5089
1062 -2.01706 0.895395 11.099 190 170 161 0.3927 3 4424 4 4315 6 3787 1 4982
1061 -2.05722 0.948081 11.0707 181 159 148 0.731283 3 4422 4 5754 1 4983 2 4283
1060 -2.29557 1.13583 10.8666 195 178 170 1.17256 3 4420 4 4407 6 3861 1 5060 2 4348
1059 -2.29155 1.13516 10.8601 195 178 170 0.306999 3 4419 4 4408 1 5059
1058 -2.28727 0.955357 10.8661 194 176 166 0.595858 3 4415 4 4314 6 1347 1 4980 5 1368 2 4277
1057 -2.31989 0.997255 10.84 190 169 163 0.751056 3 4414 4 4404 6 3775 1 4978 5 1370 2 1089
1056 -2.90109 1.17453 10.3371 117 66 65 0.518751 3 4412 4 1664 6 1455
1055 -2.88984 1.14541 10.3564 164 140 134 0.655259 3 4411 4 5787 6 3853
1054 -2.87279 1.0452 10.3544 115 62 67 0.615693 3 4409 4 1665 1 5045 5 1448 2 4273
1053 -2.88461 1.07343 10.3445 174 144 138 0.128707 3 4407 4 4402 2 4274
1052 -2.9227 1.0597 10.3133 163 143 133 0.415065 3 4406 4 4397 1 5050 5 5208
1051 -2.9227 1.0597 10.3133 163 143 133 0.415065 3 4405 4 4396 1 5051 5 5207
1050 -3.09345 1.08254 10.1655 161 128 119 0.276786 3 4403 4 4385 6 1332 1 5040
1049 -3.09306 1.08232 10.1649 161 128 119 0.214854 3 4402 4 4386 1 5041 2 4266
1048 -3.11156 1.00373 10.1398 114 62 61 0.843439 3 4401 4 1528 6 3762 1 1277 5 1521 2 1073
1047 -3.13008 1.19547 10.1373 115 62 65 0.711204 3 4400 4 4391 6 1450 1 5146
1046 -3.13037 1.19397 10.138 115 62 65 0.418615 3 4399 4 4392 1 5145 5 1534 2 4334
1045 -3.20017 1.24862 10.0864 105 61 62 0.393331 3 4398 4 4389 6 1446 1 1463 2 4340 5 1667
1044 -3.22174 1.24088 10.0637 174 153 147 0.388441 3 4397 4 4388
1043 -3.22603 1.24221 10.0697 174 153 147 0.843405 3 4396 4 4387 2 4339
1042 -3.27167 1.23001 10.0178 126 70 73 0.764208 3 4395 4 1651 6 1442 1 5139
1041 -3.27144 1.22991 10.0175 126 70 73 0.627466 3 4394 4 1652 6 1443 1 5140 2 4337
1040 -3.23569 1.17759 10.0487 169 140 132 0.31099 3 4392 4 4381 1 5142
1039 -3.23683 1.17918 10.051 169 140 132 0.722454 3 4391 4 4380 1 5143 2 1182
1038 -3.25899 1.17935 10.022 121 63 67 0.47958 3 4389 4 1647 6 1439 5 1649 2 4329
1037 -3.13859 1.09977 10.1239 170 141 136 0.620335 3 4387 4 4383 6 3763 1 5036 5 1531 2 4332
1036 -3.14607 1.03519 10.108 118 68 71 0.7102 3 4384 4 1527 1 1274 2 1062
1035 -3.21518 1.03137 10.0599 165 137 132 0.983639 3 4383 4 1521 2 4258 5 5198
1034 -3.27865 1.08785 10.0084 168 141 134 0.764912 3 4378 4 4375 6 1318 1 5032
1033 -3.33877 1.2077 9.96802 175 150 143 0.41756 3 4377 4 4370 1 5137 5 5274
1032 -3.33778 1.2077 9.96622 175 150 143 0.473893 3 4376 4 4369 6 3839 1 5138 5 5273 2 5903
1031 -3.42977 1.26375 9.89109 182 155 151 0.813675 3 4375 4 1637 6 1432 1 1453 5 1653
1030 -3.42724 1.23346 9.88693 118 67 66 0.429682 3 4373 4 4366 6 1431 1 5136
1029 -3.42896 1.23457 9.88771 118 67 66 0.574605 3 4372 4 4365 6 1430 5 1651
1028 -3.45324 1.26888 9.85877 175 155 146 0.853108 3 4371 4 4368 6 3835 1 5126 5 1657 2 5906
1027 -3.4552 1.2682 9.86111 175 155 146 0.633938 3 4370 4 4367 1 5125 5 1658
1026 -3.48883 1.27181 9.83238 189 164 157 0.584721 3 4369 4 1622 1 5124 5 1642 2 4319
1025 -3.41919 1.14756 9.88217 185 161 153 0.526928 3 4367 4 1630 1 5128 2 1168
1024 -3.45372 1.15486 9.85682 183 159 153 0.819562 3 4366 4 1628 6 3736 1 1427 5 1632
1023 -3.45419 1.15442 9.85954 183 159 153 0.544787 3 4365 4 1629 1 1428 5 1633
1022 -3.36728 1.01967 9.92055 172 152 145 0.469657 3 4364 4 4290 1 5030 2 4251
1021 -3.4623 1.13245 9.84042 124 74 75 0.701657 3 4361 4 4354 6 1308 1 5116 2 5896
1020 -3.46237 1.13179 9.84057 124 74 75 0.576463 3 4360 4 4355 1 5117 2 5895
1019 -3.45957 1.03274 9.82773 125 68 74 0.581756 3 4359 4 4280 2 5855
1018 -3.46131 1.03354 9.83008 125 68 74 0.548198 3 4358 4 4279
1017 -3.5067 1.19289 9.8109 119 70 68 0.769227 3 4357 4 4359 6 1425 1 5123 5 5262 2 5898
1016 -3.53345 1.18365 9.788 184 162 154 0.671085 3 4355 4 4357 6 1306 1 5120 5 1640
1015 -3.53183 1.18435 9.78646 184 162 154 0.856019 3 4354 4 4356 6 1305 1 5119 5 1639 2 4309
1014 -3.51695 1.15699 9.79128 118 68 71 0.548421 3 4353 4 4358 6 3734 1 5118 2 5892
1013 -3.57833 1.11507 9.73932 181 162 155 1.26584 3 4348 4 4350 6 3732 1 5114 5 1627 2 4246
1012 -3.57975 1.07247 9.73347 178 155 149 0.716029 3 4346 4 1469 1 1414 5 1626
1011 -3.62739 1.11381 9.69188 115 65 68 1.01529 3 4343 4 4349 6 1291 1 7103 5 5256 2 5851
1010 -3.62793 1.05531 9.69235 123 73 76 1.08013 3 4342 4 1466 1 5104 5 1624
1009 -3.7191 1.26001 9.62672 133 91 93 0.959953 3 4341 4 1608 1 1576 2 4304
1008 -3.68927 1.19607 9.64946 135 92 93 0.907911 3 4340 4 1598 1 1406 5 1620 2 4308
1007 -3.7705 1.21749 9.57313 121 80 82 0.308543 3 4338 4 1585
1006 -1.2507 0.752235 11.761 181 167 157 1.56502 3 4332 4 4341 6 3812 1 7022 2 4290
1005 -1.29116 0.628382 11.7211 131 86 83 1.23944 3 4328 4 4336 1 4936
1004 -1.36497 0.805558 11.6617 134 93 91 0.466595 3 4327 4 4337
1003 -1.51798 0.681535 11.5659 159 126 117 0.921106 3 4325 4 4328 6 3803
1002 -2.01084 0.821761 11.107 126 76 77 0.910288 3 4316 4 5752 1 4951 6 3786
1001 -2.01323 0.820761 11.1055 126 76 77 0.0089343 3 4315 4 5753
1000 -1.89334 0.670397 11.1881 131 80 79 0.710592 3 4314 4 4316
999 -1.93167 0.612738 11.1527 136 81 82 0.684947 3 4311 4 5722 2 4210
998 -2.04903 0.633257 11.0487 119 68 67 0.238043 3 4307 4 1418 1 4949
997 -2.17403 0.770925 10.9516 165 133 128 0.854199 3 4306 4 5748 5 5081 2 4205
996 -2.23306 0.762366 10.8928 187 163 156 0.389504 3 4302 4 4308 6 3777 1 4945 2 4203
995 -3.02225 0.942314 10.2173 179 162 154 1.05273 3 4299 4 4303 1 5042 5 7092 2 5869
994 -3.13388 0.931552 10.1187 164 134 132 0.734088 3 4294 4 4300 6 1327 1 1268
993 -3.2594 0.938277 10.0119 176 148 144 0.762488 3 4291 4 4295 6 3743 1 5026 5 5192 2 5859
992 -3.25359 0.910227 10.0065 118 63 66 0.363295 3 4290 4 1509 6 1315 1 5025 2 4255
991 -3.25367 0.910127 10.0067 118 63 66 0.321715 3 4289 4 1508 6 1314 1 5024 5 1503 2 4254
990 -3.32411 0.998367 9.95811 185 153 147 0.500977 3 4277 4 1494 6 1312 1 5029 5 1511 2 4249
989 -3.36125 0.99314 9.92248 120 71 74 0.631513 3 4276 4 4289 6 1310 1 5028 5 1510 2 5854
988 -3.3189 0.779262 9.94152 118 78 76 0.103235 3 4274 4 4252
987 -3.54971 0.956862 9.74537 186 160 153 0.90066 3 4266 4 1448 6 1298 1 1238
986 3.42065 -0.0853358 13.6397 176 166 154 0.809547 3 4260 4 5711
985 -1.27576 0.477889 11.7283 166 137 129 0.102028 3 4258 4 4273
984 -1.29694 0.505465 11.7066 137 82 79 0.480209 3 4257 4 5731 1 6998
983 -1.38789 0.467444 11.606 130 92 89 1.05363 3 4254 4 1436 6 1243
982 -1.59378 0.487969 11.445 192 173 166 0.575316 3 4251 4 5729 1 6992 2 984
981 -1.83691 0.571103 11.2396 138 93 92 0.437704 3 4249 4 4263 6 3693 1 6991 5 1268
980 -1.99637 0.599755 11.0981 163 129 125 0.00308397 3 4247 4 4259
979 -2.18908 0.624084 10.9168 164 136 125 1.18972 3 4246 4 1412 6 3687 1 4941 2 5833
978 -2.21695 0.601459 10.8966 122 68 66 0.871823 3 4245 4 4256 1 7003 5 1296 2 4197
977 4.41419 -0.0614735 12.5253 144 142 153 0.0227248 3 4240 4 5706
976 4.33625 -0.0500293 12.6051 79 74 96 1.49032 3 4239 4 5703 6 5178 1 996 2 890
975 4.25866 -0.122304 12.6747 77 72 95 1.11181 3 4238 4 4238 6 1263 1 4901 5 1080 2 4173
974 4.20516 -0.164542 12.7359 226 185 133 1.44861 3 4236 4 1341 1 6963 2 5818
973 4.12021 -0.0455813 12.8373 230 229 226 0.901153 3 4234 4 1386 1 4900 5 1138 2 886
972 4.09117 -0.03697 12.875 82 78 75 0.976243 3 4233 4 4247 1 6966 5 4970 2 4172
971 4.11374 -0.249472 12.8333 132 123 139 0.739102 3 4230 4 1334 1 4898 5 1069 2 845
970 3.66935 -0.220525 13.3851 100 101 132 1.06647 4 4230 6 3670 3 4227 5 4913 2 4167
969 3.25693 -0.193139 13.7802 199 197 185 1.4595 3 4224 4 5710 6 3664 5 4905 2 4164
968 3.35942 -0.323753 13.6709 94 72 71 0.640603 3 4222 4 4226 5 4906
967 2.99876 -0.172802 14.0747 87 88 74 0.876641 3 4221 4 1373 2 4163
966 3.06482 -0.412198 13.9771 187 145 97 0.675704 3 4220 4 4216 5 4904 2 4118
965 4.4932 -0.347713 12.4138 188 196 209 1.01641 3 4217 4 4211 5 4930
964 4.43272 -0.365824 12.4714 87 69 91 0.990689 3 4216 4 4210 6 3673 1 6950 5 4927 2 4153
963 4.41748 -0.40263 12.4829 87 72 89 0.290413 3 4215 4 4206 2 4152
962 4.22581 -0.405642 12.7019 86 60 73 1.34697 3 4213 4 5684 1 6949 5 4851 2 4146
961 4.38977 -0.464884 12.4926 120 68 79 2.02865 3 4212 4 5689 6 1150 5 4853
960 4.01209 -0.383889 12.9693 132 159 164 1.23623 3 4211 4 4201 6 1169
959 4.13434 -0.487399 12.7702 68 58 59 1.35491 3 4210 4 1297 6 1147 1 6947 5 4850
958 4.13431 -0.587457 12.771 227 189 141 1.08874 3 4207 4 4174 6 1140 1 4841 5 4849 2 4105
957 3.80973 -0.452606 13.1809 215 198 157 1.12882 3 4206 4 4197 6 1136
956 3.80973 -0.452606 13.1809 215 198 157 1.12882 3 4205 4 4196 6 1135
955 3.78285 -0.387976 13.2307 106 80 69 1.1452 3 4204 4 4228 6 1164 5 4911
954 3.80585 -0.610679 13.16 162 156 120 1.67262 3 4202 4 4191 6 1120
953 3.67049 -0.620851 13.3147 211 174 147 0.850988 3 4200 4 4192 6 1118 5 939 2 779
952 3.68197 -0.654632 13.3128 170 134 115 0.542904 3 4198 4 4190 5 4834
951 3.71235 -0.670728 13.2774 193 127 105 0.5544 3 4197 4 4189 5 4832 2 4095
950 3.57605 -0.498589 13.4551 193 181 171 0.562868 3 4194 4 5675 5 4827 2 4123
949 3.38463 -0.533183 13.5948 157 162 176 1.53364 3 4189 4 1269 6 1116
948 3.38802 -0.535679 13.6165 157 162 176 0.211432 3 4188 4 1270 5 933 2 4119
947 3.16045 -0.596198 13.844 209 171 108 1.13628 3 4187 4 4187 6 1111 5 4822 2 5805
946 2.85185 -0.862756 14.15 123 118 112 1.01305 3 4186 4 1260 6 1070 5 6886 2 5782
945 4.26911 -0.712321 12.6083 93 76 96 2.39908 3 4185 4 1251 6 1099 2 4114
944 4.18535 -0.778194 12.7111 79 64 87 0.398223 3 4184 4 4172 5 4767 2 4112
943 4.18407 -0.777502 12.7105 79 64 87 0.625686 3 4183 4 4171 1 4837 5 4768 2 4113
942 4.11791 -0.893902 12.7647 223 210 210 1.18296 3 4180 4 4129 6 3630 1 6888 5 4765 2 4071
941 3.97466 -0.817026 12.9616 107 98 94 1.66292 3 4179 4 1240 6 1093 1 4776 5 810
940 3.97369 -0.861084 12.9497 100 108 110 1.13804 3 4178 4 4162 6 3628 5 809
939 3.84696 -0.81659 13.1154 185 142 114 1.1773 3 4175 4 1239 1 4767 2 4093 5 4754
938 3.90805 -0.920431 13.0248 82 80 74 1.44269 3 4167 4 4124 6 1084 1 4768 2 4061
937 3.46482 -0.880572 13.5026 91 76 71 1.37323 3 4164 4 1223 6 1073 5 4749 2 4087
935 3.34971 -1.09236 13.609 170 170 182 0.142213 3 4157 4 4118
934 4.26896 -0.888896 12.6201 183 95 116 1.54 3 4155 4 1173 1 6890 5 4769
933 4.19895 -1.05895 12.6762 90 70 93 1.3567 3 4153 4 4127 1 6889 2 5776
932 4.19734 -1.14678 12.6554 116 86 96 1.30814 3 4152 4 4096 6 3605 1 4703 5 647 2 692
931 3.9412 -1.08738 12.965 133 131 142 1.2831 3 4144 4 1163 6 1027 1 4688 5 800 2 723
930 4.15262 -1.10635 12.7009 161 84 98 1.02124 3 4143 4 5618 1 6816
929 3.89476 -1.1775 13.0153 191 177 143 1.01966 3 4139 4 1091 1 4685 5 4671 2 4055
928 3.5997 -1.10725 13.3264 57 55 57 0.751057 3 4134 4 4121 1 6806
927 3.3067 -1.43412 13.6179 176 183 189 1.44976 3 4132 4 1078 2 4018 5 6798
926 3.06649 -1.22026 13.8937 96 103 119 0.485045 3 4131 4 5630 6 3586
925 2.98224 -1.50708 13.9586 83 80 89 0.535642 3 4127 4 1076
924 -2.76505 -0.298134 10.115 137 125 113 0.75535 3 4122 4 1189
923 -4.11495 -0.400083 10.583 212 200 176 2.81528 3 4119 4 5671
922 4.62148 -1.24726 12.1868 193 183 171 0.788922 3 4104 4 4022 6 3574
921 4.43928 -1.32057 12.4384 234 222 206 1.73585 3 4103 4 5585 2 4033
920 4.27797 -1.2284 12.5694 172 185 182 1.31859 3 4102 4 1098 6 1034 1 4704 5 4676 2 4029
919 4.26574 -1.25968 12.5633 85 79 92 1.84068 3 4099 4 4091 6 3572 1 6819 2 691
918 3.99437 -1.33489 12.8889 178 127 146 0.92994 3 4094 4 4083 1 6813 5 4670 2 4027
917 3.91617 -1.30199 12.9669 194 177 151 1.20015 3 4093 4 4081 6 984 1 6811
916 4.02424 -1.33539 12.8507 112 80 91 1.26403 3 4092 4 4084 6 989 1 4689
915 3.91682 -1.38453 12.9517 201 188 164 1.13616 3 4091 4 4079 6 983 1 4612 5 4668 2 4023
914 -0.297402 -1.43273 12.4494 93 84 103 1.33847 3 4080 4 4066 6 3531
913 -0.494501 -1.24967 12.2558 74 71 90 1.36487 3 4079 4 4065 6 5089
912 -0.494736 -1.25254 12.2599 74 71 90 1.41841 3 4078 4 4064 6 5090 1 6799
911 -0.524599 -1.28313 12.2344 191 178 169 0.924803 3 4077 4 1060 6 3552 1 6797 5 4814
910 -0.524599 -1.28313 12.2344 191 178 169 0.924803 3 4076 4 1059 6 3553 1 6796 5 4813
909 4.3463 -1.70265 12.4167 246 205 175 1.88131 3 4070 4 5555 6 5085 1 6715 2 4009 5 4531
908 3.66626 -1.87305 13.1011 210 209 200 0.643474 3 4067 4 3951 6 3477 2 4006
907 3.4368 -1.73841 13.3547 238 222 213 0.0920902 3 4066 4 5582
906 3.43636 -1.742 13.3639 238 222 213 0.476286 3 4065 4 5583 5 4588 2 4007
905 3.43702 -1.88386 13.3564 234 227 209 0.976136 4 855 5 4519 3 4064 2 4004
904 3.39028 -2.02712 13.3898 220 195 139 0.619637 3 4063 4 3945 6 819 5 6713 2 3964
903 3.33256 -1.97645 13.4566 148 76 65 0.748915 3 4061 4 3947 6 816 5 4512 2 4000
902 -0.439734 -1.66818 12.2597 115 79 63 0.756725 3 4058 4 5578 6 5023 1 6702 5 591
901 -0.439734 -1.66818 12.2597 115 79 63 0.756725 3 4057 4 5579 6 5024 1 6703 5 590
900 -0.533065 -1.61775 12.1869 146 117 100 1.08148 3 4055 4 4012
899 -1.02761 -1.34904 11.6451 90 100 101 0.615977 3 4053 4 4058 2 519
898 -1.02761 -1.34904 11.6451 90 100 101 0.615977 3 4052 4 4059 2 518
897 -1.07855 -1.48412 11.6057 76 75 97 0.977461 3 4050 4 4005 6 3517 2 401
896 -1.9493 -1.13201 10.9206 158 91 75 0.287904 3 4047 4 1023
895 -1.80511 -1.23131 11.0524 99 108 125 0.562322 3 4044 4 4055 6 3514
894 -1.79845 -1.22717 11.0423 99 108 125 1.14116 3 4043 4 4056 6 3515 2 3886
893 -1.98468 -1.21075 10.8672 197 149 98 1.18157 3 4041 4 5598 6 3505 1 6789 5 4896 2 3883
892 -2.09069 -1.04809 10.7797 201 193 157 0.397175 3 4040 4 4049 1 6855 5 4963
891 -2.16414 -1.03478 10.711 202 192 157 0.154637 3 4038 4 4047 6 945
890 -2.13592 -1.0894 10.737 193 171 151 0.651488 3 4037 4 5596 6 5064 2 3878
889 -2.31713 -0.992331 10.5537 213 197 174 0.938675 3 4036 4 1017 6 3547 1 6849
888 -2.26889 -1.13715 10.6004 197 168 110 0.806385 3 4034 4 1012 1 4741 5 4961 2 3877
887 -2.36355 -1.05665 10.4907 148 88 77 0.567775 3 4032 4 4036 6 3495 1 4742 5 1127
886 -3.2655 -0.906665 9.80984 205 196 187 0.704807 3 4031 4 4029 5 1216 1 4801
885 -3.58836 -0.728576 9.52382 203 195 185 0.564141 3 4030 4 4025 6 938
884 -3.64693 -0.701051 9.50426 164 160 159 1.12105 3 4029 4 4103 1 6928
883 -3.72428 -0.601208 9.43269 162 161 157 1.94682 3 4027 4 5621 1 6954 2 3860
882 4.36388 -2.02587 12.3495 211 200 196 1.48642 3 4023 4 5477 6 3392 1 6665 5 6672 2 3984
881 4.33814 -2.01718 12.3852 119 110 106 1.52756 3 4022 4 3811 6 691 1 6663 5 4464 2 3983
880 4.04256 -2.10688 12.6873 196 179 161 0.775179 3 4021 4 3880 6 683 5 4455 2 3973
879 3.97411 -2.04942 12.7692 94 89 84 1.46912 3 4020 4 718 5 408 2 3972
878 3.98539 -2.08806 12.7531 163 162 158 1.26182 3 4019 4 717 6 682 1 4374 5 293 2 3970
877 3.68314 -2.16084 13.0594 122 119 138 0.431863 3 4013 4 3876 5 4451
876 3.26459 -2.18297 13.4982 97 98 118 0.364491 3 4006 4 705
875 3.22761 -2.24815 13.5538 113 102 109 0.878852 3 4005 4 3874 6 3371 5 4437 2 3960
874 3.26814 -2.28116 13.4937 201 186 177 1.65885 3 4003 4 3873 5 6661 2 5713
873 0.0364039 -1.93934 12.7208 75 50 46 1.00879 3 4000 4 5547 6 5030
872 0.0378611 -1.94058 12.7205 75 50 46 1.18362 3 3999 4 5546 6 5029 1 4360
871 -0.250028 -1.98945 12.4046 192 181 142 0.155684 3 3995 4 5545
870 -0.250028 -1.98945 12.4046 192 181 142 0.155684 3 3994 4 5544
869 -0.969207 -1.55396 11.6669 193 176 93 0.788867 3 3989 4 5571 6 3459 1 6754 5 4734 2 3898
868 -1.4738 -1.52306 11.3142 103 112 129 1.03494 3 3987 4 3995 6 759 1 6752 2 3889
867 -1.3216 -1.58305 11.4243 65 56 59 0.788943 3 3986 4 4003 5 4730
866 -1.35385 -1.63954 11.4105 79 90 108 2.14885 3 3984 4 3931 1 4459
865 -1.48888 -1.55322 11.2983 80 87 106 1.023 3 3980 4 3993 6 3445 1 6750 5 6830
864 -1.5245 -1.53318 11.2938 110 117 135 1.1672 3 3979 4 3994 6 757 1 6751 5 4805
863 -1.56621 -1.60481 11.2401 89 94 121 1.34643 3 3976 4 3925 6 3442 1 4557 2 3796
862 -1.59495 -1.59646 11.2133 205 149 111 0.739005 3 3975 4 5540 6 3441 1 6747 5 4726
861 -2.01185 -1.29589 10.8541 193 154 106 0.737668 3 3972 4 3983 6 3502 1 540 5 4893
860 -2.09822 -1.33533 10.7626 208 193 150 1.01817 3 3970 4 3982 6 3500 1 6788 5 4889
859 -2.12582 -1.32386 10.7399 212 193 152 1.30123 3 3969 4 915 1 4651
858 -2.14211 -1.45886 10.7326 159 112 70 0.661083 3 3968 4 907 6 745 1 4544
857 -2.2231 -1.44447 10.6611 79 75 72 0.556145 3 3967 4 3980 2 3788
856 -2.32605 -1.41702 10.5485 180 125 118 0.719314 3 3965 4 3979 6 3423 1 4645
855 -2.47986 -1.10111 10.3234 218 218 185 0.613131 3 3964 4 4034 6 851
854 -2.88103 -1.06296 10.1026 101 109 135 1.09178 3 3963 4 995
853 -3.18314 -0.944563 9.86615 176 108 89 1.15428 3 3960 4 4032 6 5059 4 5592 1 4800 5 4987
852 -3.17875 -1.14052 9.85125 209 199 163 0.832802 3 3958 4 3973 6 3488 1 6841 2 5581
851 -3.18117 -1.17112 9.84284 145 136 113 0.508806 3 3957 4 3971 6 3409 1 6840 2 3720
850 -3.27414 -0.927404 9.79418 79 68 73 0.22887 3 3956 4 992 6 847
849 -3.29487 -0.935208 9.77844 213 198 167 0.601303 3 3955 4 991 6 3491 1 6908 5 4984
848 -3.3166 -0.957979 9.75338 102 74 66 0.449127 3 3954 4 4028 1 6907 2 3777
847 -3.36645 -0.949397 9.70811 101 74 63 0.529446 3 3953 4 4027 6 3486 1 6906 5 4983 2 3776
846 4.41687 -2.04774 12.2894 183 145 126 0.952096 3 3949 4 3810 6 692
845 4.26908 -2.21863 12.4393 221 193 143 0.964417 3 3948 4 3799 6 3387 5 4457 2 3934
844 4.11417 -2.11999 12.6119 210 183 172 1.00465 3 3947 4 3805 6 687 5 4460 2 3974
843 3.70652 -2.25982 13.0175 114 86 85 0.666515 3 3944 4 3797 6 678 5 4449
842 3.65067 -2.48342 13.0488 238 226 219 0.511684 3 3942 4 5465 6 3264 2 3924
841 3.55915 -2.56621 13.1544 74 68 72 1.17248 3 3939 4 3789 6 522 5 6622 2 3922
840 3.41292 -2.6137 13.2886 73 63 62 0.811023 3 3938 4 3784 6 512 5 4365 2 3815
839 0.169456 -2.24621 12.8076 157 84 75 2.54921 3 3934 4 3871
838 0.261137 -2.43464 12.8561 192 177 164 0.777306 3 3933 4 6457 6 3254
837 -0.15105 -2.23853 12.4783 201 168 117 1.39853 3 3928 4 3863 6 3356 2 282
836 -0.403611 -2.12169 12.2127 195 188 172 1.19937 3 3927 4 3861 6 3353 2 3804
835 -0.441161 -2.1233 12.1976 189 182 167 0.937051 3 3926 4 3860 6 3352
834 -1.2622 -1.98757 11.4303 173 102 96 1.0789 3 3922 4 5493 6 3338 1 6641 5 4631 2 3747
833 -1.45188 -1.89117 11.2892 83 86 96 1.52543 3 3917 4 3855 6 3334 1 6637
832 -1.46824 -1.92331 11.2867 184 138 112 0.91049 3 3916 4 3854 6 3332 1 6636 5 6781 2 5597
831 -2.09333 -1.7514 10.781 90 88 99 0.727663 3 3909 4 789 6 581 1 6684
830 -2.09333 -1.7514 10.781 90 88 99 0.727663 3 3908 4 788 6 580 1 6683
829 -2.65495 -1.46294 10.2283 76 74 87 0.951545 3 3900 4 6477 6 3416 1 7972 5 4882
828 -2.82798 -1.45263 10.092 201 197 159 0.853587 3 3899 4 3912 6 728 1 6737 5 4879 2 3671
