# 3D point list with one line of data per point:
#   POINT3D_ID, X, Y, Z, R, G, B, ERROR, TRACK[] as (IMAGE_ID, POINT2D_IDX)
# Number of points: 607, mean track length: 3.75758
2650 3.62249 -2.68681 13.2686 0 0 0 0.658301 5 6680 4 3788 3 6188 6 4268 1 3496
2649 -1.49923 -1.90137 11.1958 0 0 0 0.921398 5 6679 4 6128 3 6066 2 7906 6 12917 1 6590
2648 -1.28005 -1.95199 11.3442 0 0 0 1.41958 5 6678 4 3716 3 3883 2 2801 6 4192 1 3376
2647 -2.32641 -1.5995 10.3829 0 0 0 0.686271 5 6675 4 6058 3 5983 2 7712 6 12564 1 6383
2646 -2.50926 -1.55488 10.2875 0 0 0 0.579925 5 6672 4 10555 3 9648 2 7687 6 6977 1 6391
2645 -1.88827 -1.76883 10.8835 0 0 0 1.16624 5 6670 4 6093 1 6354
2644 -1.62748 -1.85418 11.1038 0 0 0 1.09082 5 6669 4 6114 3 6051 2 4392 6 12876 1 6346
2643 3.57131 -2.68167 13.3415 0 0 0 0.687964 5 6668 4 6318 3 9881 6 4414 1 6160
2642 3.73706 -2.62061 13.1668 0 0 0 0.504886 5 6667 4 6899 6 7709 3 9869 1 6153
2641 -1.74552 -1.80769 11.0047 0 0 0 1.22763 5 6664 4 6103 3 6039 2 4373 6 12824 1 11167
2640 -1.5448 -1.86437 11.1655 0 0 0 0.923793 5 6663 4 6108 3 6048 2 4395 6 7228 1 6334
2639 0.040041 -2.34918 12.488 0 0 0 1.04681 5 6662 4 3747 3 6138 6 13251 1 11070
2638 -1.69835 -1.81666 11.0428 0 0 0 1.15138 5 6661 4 6099 3 6038 2 4374 6 7188 1 6341
2637 -2.69772 -1.48781 10.1558 0 0 0 0.623533 5 6658 4 10526 3 9633 2 7644 6 6937 1 6393
2636 3.75434 -2.59324 13.1412 0 0 0 0.579233 5 6657 4 6317 3 9861 1 3485
2635 3.45101 -2.70591 13.4816 0 0 0 1.08109 5 6656 4 10912 6 8006 1 6156
2634 -3.13034 -1.2747 9.5828 0 0 0 1.66952 4 10469 1 11240
2633 -1.57323 -1.83666 11.1459 0 0 0 1.61832 5 6652 4 6098 3 3867 2 4386 6 7209 1 3622
2632 3.68294 -2.60024 13.2318 0 0 0 0.538229 5 6651 4 6312 3 9853 6 4397 1 6143
2631 0.425418 -2.44592 12.8587 0 0 0 1.41942 5 6649 4 6184 3 2852 3 6137 6 13306 1 11031
2630 -1.66205 -1.80114 11.0803 0 0 0 0.497383 5 6648 4 6081 3 6022 2 4371 6 7183 1 11151
2629 -2.25879 -1.58627 10.4964 0 0 0 0.628803 5 6646 4 6049 2 4272 6 7019 1 6355
2628 -1.17686 -1.93444 11.4254 0 0 0 2.07104 5 6645 4 3709 1 11135
2627 -1.75286 -1.7538 10.9931 0 0 0 1.27968 5 6640 4 4044 6 7150 1 11142
2626 -2.29074 -1.55424 10.4309 0 0 0 1.12231 5 6638 4 10538 2 4259 6 6997
2625 -2.42201 -1.45908 10.3398 0 0 0 0.604256 2 1829 1 1586 5 4063
2624 -3.16575 -1.24108 9.54983 0 0 0 2.8731 4 10447 1 11235
2622 -1.18576 -1.89847 11.4456 0 0 0 1.87804 5 6631 4 3690 3 6028 2 4408 6 7270
2621 0.283429 -2.36188 12.7413 0 0 0 1.0284 5 6630 4 4040 3 6125 6 13266 1 11011
2620 -1.02081 -1.92857 11.5394 0 0 0 0.9181 5 6629 4 6104 3 9701 2 7916 6 12977 1 6288 6 4194
2619 -2.5237 -1.4798 10.2921 0 0 0 1.24738 5 6628 4 3664 3 3817 1 11180
2618 -2.85448 -1.38345 10.0489 0 0 0 0.795732 5 6626 4 4046 3 3807 2 1866 6 3987
2617 -1.70735 -1.73954 11.038 0 0 0 0.614588 5 6625 4 6057 3 4203
2616 0.250293 -2.33323 12.7031 0 0 0 0.565164 5 6624 4 6161
2615 3.60028 -2.56738 13.3196 0 0 0 0.510831 5 6623 4 6285 3 6143 6 13489
2614 0.0827859 -2.2816 12.5585 0 0 0 1.83378 5 6620 4 6158 3 6101
2613 0.182797 -2.3052 12.6419 0 0 0 1.02031 5 6619 4 6154 3 6106 1 3526
2612 0.215228 -2.31609 12.6754 0 0 0 0.791315 5 6618 4 6157 3 6105 6 7992 1 6243
2611 4.39953 -2.27338 12.502 0 0 0 1.8438 5 6617 4 6311 6 7610
2610 -3.39219 -1.20873 9.61772 0 0 0 1.13933 5 6614 4 3634 3 5907 6 6815 1 2803
2608 -3.8713 -1.0749 9.28051 0 0 0 2.42898 5 6611 4 10355
2607 -1.6221 -1.73587 11.1069 0 0 0 0.997318 5 6610 4 10550 2 7803 6 12762 1 11093
2606 0.194528 -2.28568 12.6577 0 0 0 0.771978 5 6607 4 6148 3 6095 1 10985
2605 -1.73737 -1.69617 11.0091 0 0 0 0.870498 5 6606 4 10537
2604 -0.825335 -1.92046 11.6558 0 0 0 0.505436 5 6603 4 6080 2 7910
2603 -3.02949 -1.30229 9.92783 0 0 0 0.191647 5 6602 4 6000
2602 -2.35299 -1.44468 10.3656 0 0 0 0.995304 5 6598 4 10464 2 7618 6 7966 1 11131
2601 3.45053 -2.57018 13.5125 0 0 0 2.43812 5 6597 4 3764 3 3927 6 7660 1 6123
2600 -1.95071 -1.60368 10.8288 0 0 0 1.28704 5 6596 4 10501 3 3819 1 6292
2599 -1.86156 -1.63627 10.9146 0 0 0 1.17655 5 6595 4 6030 3 9632 2 4298
2598 3.65019 -2.47989 13.2823 0 0 0 0.265502 5 6593 4 6264 6 4481 1 6115
2597 3.52877 -2.51903 13.4007 0 0 0 0.321869 5 6592 4 6261 6 7653 1 3559
2596 3.61864 -2.46903 13.3107 0 0 0 0.411241 5 6588 4 6256 3 6104 6 7635 1 6111
2595 3.74909 -2.41843 13.1639 0 0 0 0.451845 5 6587 4 6260 3 9768 6 4483 1 6108
2594 -1.91475 -1.59169 10.8524 0 0 0 1.17198 5 6584 4 10489 3 9614 2 4276 6 12097
2593 -3.03745 -1.26427 9.92653 0 0 0 0.397534 5 6582 4 5986
2592 -2.06993 -1.54677 10.733 0 0 0 0.321523 5 6581 4 10473 3 5948
2591 -1.47501 -1.71628 11.2267 0 0 0 1.14517 5 6580 4 3667 2 4337 1 11037
2590 -0.109157 -2.12767 12.3907 0 0 0 1.52699 5 6579 3 6050 2 13198 6 4252 1 6207
2589 -1.17105 -1.79431 11.4474 0 0 0 0.953876 5 6578 4 10541 6 7980 2 1851 1 11016
2588 3.72299 -2.41717 13.2008 0 0 0 0.479087 5 6576 4 10831 3 9761 6 7621
2587 4.64142 -2.09407 12.2421 0 0 0 0.402862 5 6575 4 6286
2586 -0.0110659 -2.13613 12.4819 0 0 0 1.25575 5 6571 4 6092 3 3869 2 2877 6 13150
2585 -2.33622 -1.40498 10.4467 0 0 0 0.259564 4 10425 2 7595
2584 3.884 -2.33973 13.0262 0 0 0 0.316387 5 6568 4 6250 3 9733 6 4366 1 6087
2583 -0.429276 -1.9989 12.1356 0 0 0 1.80501 5 6566 4 10566
2582 -0.2651 -2.04194 12.2369 0 0 0 1.16924 5 6565 4 3684 3 6020 2 3430
2581 3.52616 -2.44368 13.4124 0 0 0 0.693335 5 6559 4 6224 3 9755
2580 -1.97915 -1.51672 10.7961 0 0 0 0.6557 5 6558 4 6008 3 5937 2 4248 6 7010 1 6261
2579 0.0629551 -2.12287 12.5587 0 0 0 0.913513 5 6557 4 6073 3 6026 2 6596 6 13149 1 10894
2578 -1.87936 -1.5387 10.8689 0 0 0 1.69641 5 6555 4 6009 2 4258 1 6582
2577 -2.07705 -1.47618 10.7039 0 0 0 0.903172 5 6554 4 10431 3 9562 2 7647 1 6783
2576 -3.1046 -1.17864 9.8693 0 0 0 1.50773 5 6545 4 10354 2 12500 6 12230
2575 -0.34517 -1.96037 12.1722 0 0 0 0.761311 5 6542 4 6045 3 5979 2 4054 6 7343 1 6170
2574 4.28498 -2.13536 12.6134 0 0 0 0.822423 5 6541 4 10816 3 5992 6 4338 1 6045
2573 -2.30352 -1.34771 10.41 0 0 0 1.47546 5 6539 4 5979 3 2579 2 4188 6 6900 1 11026
2572 4.18651 -2.15356 12.7216 0 0 0 0.950414 5 6536 4 6228 3 9667 6 7546 1 6042
2571 3.73121 -2.30684 13.2058 0 0 0 0.421025 5 6532 4 6200 6 7581 1 6058
2570 -0.228804 -1.96478 12.2799 0 0 0 1.69351 5 6529 4 7117 3 5973 2 13327
2569 -1.64137 -1.56204 11.105 0 0 0 0.912217 5 6527 4 6002 2 4265 6 7057 1 6208
2568 -3.06146 -1.15463 9.91536 0 0 0 0.0939431 5 6526 4 5951
2567 -2.05341 -1.43323 10.727 0 0 0 0.837004 5 6525 4 5984 3 3781 2 4220
2566 -0.466987 -1.88357 12.0519 0 0 0 1.11296 5 6524 4 3666 3 5964 6 4496 1 10875
2565 3.4569 -2.3813 13.4904 0 0 0 0.949063 5 6523 4 6181 3 6046 6 4359 6 13391 1 6063
2564 4.25649 -2.10651 12.6395 0 0 0 1.81898 5 6522 4 6222 6 7533
2563 -3.3595 -1.06434 9.65878 0 0 0 0.728321 5 6521 4 10302 3 9466 2 7382 6 6792 1 3549
2562 -1.00796 -1.71173 11.5672 0 0 0 0.745648 5 6520 4 6015 3 5947 2 7790 6 12827 1 10902
2561 4.21398 -2.11691 12.705 0 0 0 1.74954 5 6519 4 7104 2 6747 6 13334 1 6034
2560 0.0700429 -2.04692 12.5783 0 0 0 1.23866 5 6518 4 3980 3 3834 2 2813
2559 -1.64497 -1.53472 11.097 0 0 0 0.86137 5 6516 4 5993 3 5917 2 4256 6 7042 1 6197
2558 -1.4673 -1.58155 11.2391 0 0 0 1.11032 5 6515 4 3639 2 4275 6 7081 1 10918
2557 -1.43754 -1.59063 11.2672 0 0 0 0.79436 5 6514 4 5999 3 3793 2 7715 6 7088 1 6184
2556 -1.78187 -1.48535 10.9886 0 0 0 1.34521 5 6508 4 5983 1 3504
2555 -3.31358 -1.04452 9.71412 0 0 0 0.698161 5 6507 4 10265 1 6276
2554 -1.63514 -1.51585 11.1014 0 0 0 0.658287 5 6506 4 10391 2 12804 6 7034 1 10919
2553 4.46416 -1.99237 12.4626 0 0 0 1.53383 5 6505 4 2104 3 3812 2 1844 1 6020
2552 -1.96066 -1.41374 10.8091 0 0 0 0.625544 5 6503 4 5969 3 5891 2 7610 6 7970 1 10942
2551 3.48085 -2.31253 13.4697 0 0 0 0.575885 5 6502 4 10702 3 9679 6 7567 1 10696
2550 3.65352 -2.24967 13.2921 0 0 0 0.495561 5 6501 4 3735 6 7550 1 6036
2549 3.56793 -2.26971 13.3919 0 0 0 0.663053 5 6499 4 6152 3 5993 6 4345
2548 -3.30823 -1.02126 9.71514 0 0 0 1.14269 5 6498 4 10252 2 7366 6 12177 1 6270
2547 -1.38758 -1.54374 11.2767 0 0 0 2.51922 4 10394 1 10869
2546 4.25896 -2.02332 12.6664 0 0 0 1.24562 5 6495 4 6174 3 9604 2 3537 6 7501 1 6016
2545 -2.16371 -1.30958 10.6035 0 0 0 0.904396 5 6494 4 5957 3 5873 2 7544 6 6898 1 6190
2544 -0.818894 -1.68408 11.6864 0 0 0 1.10945 4 6003 3 3791 5 2703 2 2764 6 4138 1 3478
2543 -3.30034 -1.00232 9.72552 0 0 0 1.12674 5 6492 4 10227 3 5833 2 4073 6 6782 1 3530
2542 -1.94389 -1.36746 10.8188 0 0 0 0.813353 5 6491 4 10346 3 5877 2 7584 6 6945 1 6165
2541 3.47523 -2.25887 13.4902 0 0 0 0.563178 5 6490 4 6133 6 7543 1 6028
2540 -3.35448 -0.976469 9.6735 0 0 0 1.15435 5 6489 4 5906 3 9416 2 7340 6 6776
2539 -2.07462 -1.32418 10.7065 0 0 0 0.652206 5 6488 4 5953 3 9491 2 7557 6 6912 1 10895
2538 -0.784497 -1.64829 11.7046 0 0 0 0.970949 5 6486 4 5988 2 4310 1 3472
2537 -2.0717 -1.29935 10.705 0 0 0 0.94677 5 6481 4 10318 3 5865 6 12383 1 6155
2536 -3.36201 -0.956634 9.68385 0 0 0 1.64537 4 7081 2 7328 6 6772
2535 0.159156 -1.94088 12.6872 0 0 0 0.807472 5 6479 4 6010 3 5945 2 4496 6 7356 1 6676
2534 -1.90198 -1.32995 10.8518 0 0 0 1.79202 4 10317 2 4190 1 6142
2533 -3.02553 -1.03383 9.95756 0 0 0 1.40498 5 6476 4 3591 3 9419 1 6206
2532 3.52488 -2.1828 13.4383 0 0 0 0.374752 5 6475 4 10611 3 5959 6 13321
2530 3.80891 -2.07605 13.1403 0 0 0 0.518135 5 6472 4 6117 1 3422
2529 -0.0855946 -1.83487 12.4486 0 0 0 1.33051 5 6471 4 7095 3 5927 2 7859
2528 -0.887816 -1.57488 11.661 0 0 0 0.744365 5 6470 4 5966 3 5886 2 7707 6 7122 1 6114
2527 -3.12993 -0.981336 9.8742 0 0 0 0.36603 5 6468 4 10170 3 5816
2526 -2.32101 -1.15335 10.3882 0 0 0 0.929614 5 6467 4 4050 3 5840 6 12265
2525 -1.57033 -1.40158 11.1546 0 0 0 1.46763 5 6466 4 10320 3 5867 2 4215 6 4045 1 2232
2524 -3.01263 -1.00244 9.95719 0 0 0 0.844534 5 6464 4 5891 2 12358 6 12192
2523 -2.35334 -1.13985 10.3871 0 0 0 0.793863 5 6462 4 5919 3 5834 2 4120 6 6835 1 3482
2522 -2.74885 -1.05749 10.1668 0 0 0 0.348454 5 6459 4 5898 6 6817 1 3487
2521 0.0810379 -1.83899 12.6184 0 0 0 1.01391 5 6458 4 5982 2 7863
2520 3.8464 -2.00825 13.1048 0 0 0 1.06154 5 6457 4 3687 3 3784 1 3417
2519 -2.31879 -1.12707 10.3993 0 0 0 0.578069 5 6456 4 5908 3 5827 2 4113 6 6834 1 6137
2518 -2.26395 -1.15708 10.4866 0 0 0 0.351822 5 6455 4 5916 3 5832 2 4130 6 6840
2517 4.60336 -1.7651 12.3048 0 0 0 1.1566 5 6454 6 13207 2 7813 1 10600
2516 -2.29934 -1.12611 10.4252 0 0 0 0.341397 5 6451 4 3600 2 7435 6 12258
2515 -2.13373 -1.19453 10.6395 0 0 0 1.27505 5 6450 4 10243 3 9427 2 7474 1 6131
2514 -0.89114 -1.52923 11.6689 0 0 0 0.482016 3 5871 2 12835
2513 -1.67335 -1.30239 11.0733 0 0 0 0.650347 5 6444 4 3608 3 3746 2 2686 6 4015 1 6106
2512 3.49603 -2.07165 13.4766 0 0 0 0.543739 5 6442 4 6886 3 9554 6 13276
2511 -1.72397 -1.28228 11.0253 0 0 0 1.09639 5 6441 4 5921 3 5843 2 4174 1 10762
2510 -0.557848 -1.57158 11.9539 0 0 0 1.99022 5 6440 4 10326 3 5870 2 2743 1 3630
2509 3.59092 -2.03293 13.3926 0 0 0 0.761049 5 6438 4 6042 3 9534 6 7481 1 10612
2508 -2.2041 -1.11246 10.5588 0 0 0 0.813321 5 6436 4 3585 3 5815 2 4112 6 6836 1 6110
2507 -2.1836 -1.10939 10.5851 0 0 0 0.882146 5 6434 4 3581 3 5810 2 4110 6 12264 1 10763
2506 -2.00031 -1.14507 10.7158 0 0 0 2.02187 5 6433 4 10183 1 10752
2505 -1.86157 -1.19912 10.8927 0 0 0 2.19476 5 6432 4 10189 3 5823 2 7483 1 10743
2504 -1.91854 -1.18178 10.8394 0 0 0 0.843665 5 6431 4 5890 2 4143 3 9402 6 6867 1 6089
2503 -2.08089 -1.13706 10.6966 0 0 0 1.55127 5 6429 4 3580 2 12504 6 12282
2502 -2.13988 -1.10959 10.6419 0 0 0 0.173379 5 6427 4 5872
2501 3.64667 -1.95441 13.3378 0 0 0 0.927355 5 6426 4 6025 6 4294 1 3408
2500 0.051256 -1.69798 12.6037 0 0 0 1.01323 5 6425 4 5944 2 7788
2499 3.62388 -1.94454 13.3631 0 0 0 0.335424 5 6424 4 10482 6 7458 1 5973
2497 -1.46727 -1.26817 11.2615 0 0 0 0.820146 5 6419 4 5889 3 5821 2 7536 1 6048
2496 -2.13645 -1.06827 10.6347 0 0 0 1.14885 5 6418 4 5846 3 5800 2 7419 1 10728 6 12253
2495 -0.16071 -1.6146 12.4112 0 0 0 0.639251 5 6416 4 5938 1 6019
2494 -1.99815 -1.09106 10.7724 0 0 0 0.735179 5 6413 4 4054 3 5799 2 4107 1 3438
2493 -0.430933 -1.50739 12.1394 0 0 0 0.674107 5 6412 4 5917 3 5844 2 7685 6 12713 1 10663
2492 3.80093 -1.83862 13.1772 0 0 0 0.555213 5 6411 4 10455 2 13077
2491 -1.55413 -1.20207 11.17 0 0 0 1.04027 5 6410 4 5861 1 3561
2490 3.9786 -1.766 12.971 0 0 0 0.574807 5 6408 4 10456
2489 -0.116737 -1.55518 12.4412 0 0 0 0.925447 5 6406 4 5909 3 9434
2488 3.56472 -1.87432 13.4386 0 0 0 1.04902 5 6405 4 5995 2 13121 6 7434 1 5965
2487 -0.78934 -1.34441 11.7535 0 0 0 1.0783 5 6404 4 5881 3 5813 2 1828 6 2290 1 2108
2486 -0.605604 -1.39875 11.9401 0 0 0 1.35956 5 6403 4 10174 3 5820 2 4223 6 12622
2485 -0.280504 -1.49714 12.317 0 0 0 1.4317 5 6400 4 5896 3 5826 2 7679 6 12719 1 6001
2484 -0.636454 -1.36657 11.8741 0 0 0 1.4334 5 6399 4 5875 3 5812 2 12711 1 10647 6 12603
2483 0.0700593 -1.59282 12.6495 0 0 0 0.629844 5 6398 4 5905 3 3736 6 8205 1 5996
2482 -1.23413 -1.22584 11.4566 0 0 0 1.39562 5 6397 4 10107 3 9360 2 12595 1 6009 6 8184
2481 -2.21065 -0.949723 10.5472 0 0 0 0.848815 5 6395 4 3560 3 5790 2 4074 6 6821 1 6030
2480 -2.30072 -0.905422 10.4098 0 0 0 0.512519 5 6393 2 7336 6 12206 1 10679
2479 -0.661665 -1.34064 11.8678 0 0 0 0.575298 5 6392 4 5864 3 5806 2 7589
2478 3.45782 -1.84884 13.5504 0 0 0 0.280731 5 6391 4 5972 6 7421 1 5962
2477 -2.44764 -0.886557 10.3649 0 0 0 0.685086 5 6389 4 7071 3 9327 2 7325 6 6800 1 6032
2476 0.4895 -1.68731 13.0439 0 0 0 0.286979 5 6388 4 10234 1 5986
2474 0.43908 -1.65652 13.0007 0 0 0 0.81432 5 6383 4 2465 3 5838 2 7773
2472 0.015243 -1.50688 12.5695 0 0 0 1.99931 5 6380 3 5814 2 2731 1 10603
2471 -0.697036 -1.25456 11.8015 0 0 0 1.45635 5 6378 4 10095 3 6856 2 12622 6 6988
2470 -1.72921 -0.999217 11.0137 0 0 0 1.00576 5 6377 4 5811 3 5786 1 10631
2469 -0.132178 -1.419 12.4699 0 0 0 0.715397 5 6376 4 10100
2468 -0.334987 -1.34805 12.2702 0 0 0 1.27089 5 6375 4 5833 3 3717 2 2708 6 4083 1 5971
2467 0.454218 -1.56393 13.0235 0 0 0 1.28266 5 6374 4 5849
2466 -2.52796 -0.730283 10.3341 0 0 0 0.7385 5 6372 4 5784 3 9293 2 7265 6 12151 1 5992
2465 4.74595 -1.29174 12.2432 0 0 0 0.112294 5 6371 4 3615
2464 4.84971 -1.26688 12.1664 0 0 0 1.74457 5 6368 4 5943 2 10352
2463 4.74429 -1.25944 12.2323 0 0 0 1.92425 5 6364 4 4049 3 3697 2 7546 6 7318 1 10503
2462 3.95496 -1.47653 13.0957 0 0 0 0.460881 5 6362 4 6875 3 9320 1 10515
2461 4.4696 -1.32659 12.5418 0 0 0 1.07269 5 6361 4 3603 6 4207 1 5934
2460 3.92513 -1.48033 13.1329 0 0 0 0.0637766 5 6360 4 3592
2459 0.124037 -1.34855 12.7508 0 0 0 1.15343 5 6359 3 1726 2 2710 1 10553
2458 4.53865 -1.28399 12.4695 0 0 0 0.827091 5 6357 4 5910 3 5758 6 7312 1 5922
2457 3.74056 -1.51442 13.3439 0 0 0 0.559792 5 6356 4 5887 3 5783 6 13055
2456 4.4046 -1.30058 12.627 0 0 0 1.6239 5 6354 4 5897 2 4198
2455 0.611912 -1.43468 13.182 0 0 0 1.36278 5 6353 4 5813 2 4244 1 10549
2454 4.34454 -1.31111 12.6815 0 0 0 1.38562 5 6352 4 3588 6 4204 1 5920 2 4206
2453 0.357734 -1.36234 12.9538 0 0 0 1.45328 5 6350 4 3554 3 3712 2 4224 1 5953 6 7115
2452 3.96197 -1.4107 13.1064 0 0 0 0.998582 5 6349 4 3576 2 7643 1 5926
2451 0.0483638 -1.31917 12.7832 0 0 0 0.688203 4 5804 3 5785
2450 3.92464 -1.41692 13.156 0 0 0 0.664183 5 6347 4 5863 6 4209 1 5921
2449 4.20328 -1.31531 12.862 0 0 0 1.33759 5 6343 4 5852 2 4210 1 5911
2448 4.00918 -1.36282 13.0824 0 0 0 0.0931522 5 6341 4 3569
2447 4.04256 -1.32641 13.0309 0 0 0 0.670553 5 6338 4 5839 3 9280 2 4212 6 7299 1 5908
2446 4.13697 -1.28197 12.9288 0 0 0 0.307629 5 6337 4 10091
2445 3.13897 -1.55743 13.998 0 0 0 0.726499 5 6335 4 5824 3 5778 2 7725 6 7339 1 5918
2444 3.49485 -1.45237 13.6185 0 0 0 0.666983 5 6334 4 10075 3 5769 6 7327 1 10482
2443 3.70973 -1.38617 13.3965 0 0 0 0.541313 5 6332 4 6872 3 9291 1 5907
2442 3.8855 -1.30764 13.2122 0 0 0 1.32918 5 6328 4 10069 2 12695 1 10456
2441 -1.40084 -0.784636 11.3106 0 0 0 0.894452 5 6327 4 5761 3 5745 2 7319 6 12231 1 10542
2440 3.56467 -1.38788 13.5603 0 0 0 0.641854 5 6326 4 5816 3 9289
2439 3.87324 -1.29405 13.2461 0 0 0 1.87289 5 6324 4 10061 1 10446
2438 3.45223 -1.39273 13.6808 0 0 0 1.26208 5 6322 4 2968 2 2723 6 7294
2437 3.12031 -1.43142 14.0233 0 0 0 0.645853 5 6320 4 5799 2 4247 6 7295
2436 4.14474 -1.15364 12.942 0 0 0 0.980798 5 6318 4 5805 3 6673 2 4164 6 7236 1 5886
2435 4.17978 -1.11406 12.9098 0 0 0 1.13241 5 6311 4 10039 3 9237 2 4154 6 7225 1 5883
2434 3.92523 -1.16895 13.1735 0 0 0 0.565186 5 6308 4 5793 2 12609
2432 3.88015 -1.16723 13.2259 0 0 0 1.76167 5 6303 4 3551 3 2522 2 1677
2431 0.643712 -1.1517 13.2325 0 0 0 1.98129 5 6300 4 3532 3 4211 2 4506 6 12609
2430 4.07354 -1.10798 13.0336 0 0 0 0.707768 5 6296 4 5789 2 7489 6 12864 1 5873
2429 3.22561 -1.32835 13.9412 0 0 0 0.733397 5 6295 4 5786 3 9259 2 4222 6 7257
2428 0.453323 -1.07446 13.0256 0 0 0 0.481912 5 6293 4 5755
2427 3.32924 -1.26154 13.8273 0 0 0 0.892265 5 6291 4 2430 3 3678 2 2705
2426 4.05988 -1.07056 13.0455 0 0 0 0.717012 5 6289 4 5782 3 9223 2 4509
2424 4.29349 -0.971802 12.7683 0 0 0 0.309257 5 6284 4 5779
2423 4.18006 -1.0089 12.9215 0 0 0 1.17291 5 6282 4 5778 3 9187 2 7454 6 12818
2422 4.42563 -0.930863 12.6273 0 0 0 1.55388 5 6281 4 5777 3 6671 2 4096 1 5863
2421 0.702333 -1.07908 13.2895 0 0 0 1.46237 5 6280 4 5746 3 5738 2 7491 6 12567 1 10435
2420 -1.0627 -0.651724 11.6139 0 0 0 0.814265 5 6277 4 9900 3 5725 2 12209 6 6816
2419 4.1123 -0.987402 13.0063 0 0 0 1.27495 5 6274 4 5771 3 5711 2 4122 6 7164 1 5859
2418 4.41482 -0.895536 12.636 0 0 0 0.873715 5 6273 4 3542 3 5701 2 4085 6 4117 1 5857
2417 4.3897 -0.870651 12.6653 0 0 0 1.20234 5 6271 4 5765 3 5698 2 7388 6 12730 1 10390
2416 4.17686 -0.927121 12.9271 0 0 0 1.03792 5 6269 4 3534 3 5704 6 7146
2415 4.10345 -0.929499 13.0176 0 0 0 1.25092 5 6267 4 3527 3 5705 2 4103 6 4501 1 5849
2414 4.31897 -0.840324 12.7463 0 0 0 0.823219 5 6266 4 3525 3 5693 2 4083 6 7118 1 5842
2413 4.17771 -0.883244 12.9439 0 0 0 1.31347 5 6265 4 5752 3 5697 2 4090 6 7125 1 5844
2412 3.25875 -1.09016 13.9239 0 0 0 0.881723 5 6264 4 9941 1 5850
2411 3.79245 -0.948453 13.3656 0 0 0 1.74101 5 6263 4 9942 2 7439 1 6745
2410 4.16685 -0.856196 12.9665 0 0 0 1.35704 5 6261 4 9944 2 7397 1 5840
2409 4.18616 -0.846389 12.9419 0 0 0 1.2976 5 6260 4 5744 3 9163 2 7391 6 12703 1 5839
2408 3.75306 -0.914014 13.3843 0 0 0 1.05592 5 6258 4 5736 3 5699 2 4106
2407 3.23875 -1.03348 13.9521 0 0 0 2.1439 5 6257 4 9919 2 7485 6 7145 1 3338
2406 4.04041 -0.841324 13.1095 0 0 0 1.29298 5 6256 4 5735 3 9160 2 7394 6 12693 1 10369
2405 4.13503 -0.818206 13.0086 0 0 0 0.950158 5 6255 4 3519 3 5689 1 5835
2404 3.79444 -0.872439 13.364 0 0 0 1.16455 5 6254 4 5732 3 9165 2 4097 6 7105 1 5834
2403 4.1496 -0.791914 12.9954 0 0 0 1.6163 5 6252 4 9918 3 5684 2 12370 6 12666 1 10360
2402 3.30617 -0.981201 13.8874 0 0 0 0.716192 5 6251 4 5729 1 5837
2401 3.82254 -0.858228 13.3395 0 0 0 1.16261 5 6250 4 5731 3 5691 2 4088 6 4102 1 3334
2399 4.15532 -0.745257 12.9992 0 0 0 0.556405 5 6246 4 5722 3 3645 6 7073 1 5828
2398 4.41355 -0.625025 12.652 0 0 0 0.742323 5 6240 4 9871 3 6845 2 7298
2397 3.66756 -0.807865 13.5241 0 0 0 0.577554 5 6239 4 9864 6 7075
2396 4.38388 -0.631736 12.6937 0 0 0 0.787587 5 6238 4 5709 3 5674 2 4048 6 7035 1 5824
2395 3.91743 -0.736969 13.2537 0 0 0 0.510544 5 6236 4 5704 3 9149 6 4431 1 3331
2394 4.34688 -0.604535 12.7287 0 0 0 1.10032 4 2411 3 3636 2 2598 1 3327
2393 3.77982 -0.727331 13.4026 0 0 0 1.65781 5 6234 4 5697 3 9146 2 7362 6 7051
2392 3.70291 -0.746192 13.4995 0 0 0 1.07341 4 9853 5 6233 1 5822 6 12614
2391 3.87887 -0.688449 13.298 0 0 0 0.674412 5 6231 4 3497 3 5680 6 7037 1 5821
2390 4.40348 -0.549907 12.6751 0 0 0 0.973384 5 6229 4 5695 3 9112 2 4430 6 12553 1 5817
2389 4.63949 -0.494616 12.4338 0 0 0 0.562951 5 6228 4 3498 2 4513 6 12538 1 5815
2388 4.22019 -0.594011 12.9296 0 0 0 0.966193 5 6227 4 5694 3 9121 6 7022
2387 3.69991 -0.69933 13.5078 0 0 0 1.32944 5 6225 4 9846 6 12593 1 10318
2386 4.63945 -0.461968 12.4185 0 0 0 1.02309 5 6224 4 5690 3 9086 2 7249 6 12528 1 10306
2385 3.81702 -0.62562 13.3804 0 0 0 0.98765 5 6222 4 5681 3 9125 6 4062 1 5813
2384 4.60031 -0.438713 12.4653 0 0 0 1.03138 5 6220 4 5683 3 9076 2 7246 6 12518 1 10300
2383 3.89165 -0.601371 13.3073 0 0 0 0.744494 5 6219 4 9830 3 5668 6 4060
2382 4.62931 -0.428369 12.4427 0 0 0 0.783424 5 6218 4 3489 3 3623 2 1889 6 4037 1 3314
2381 4.64912 -0.397541 12.3792 0 0 0 0.753417 5 6217 4 5678
2380 4.00414 -0.554906 13.1898 0 0 0 1.05359 5 6215 4 3484 1 3316
2379 4.15752 -0.515754 13.0182 0 0 0 0.843823 5 6214 4 5677 3 6670 6 6987 1 5805
2377 4.4292 -0.434985 12.6384 0 0 0 0.335838 5 6211 4 5676 3 5649
2376 3.27438 -0.689016 13.9455 0 0 0 1.12036 5 6209 4 5674 3 9136 6 7018 1 5808
2375 3.17583 -0.706564 14.0534 0 0 0 0.77749 5 6208 4 5672 3 5681 6 7023 1 5810
2374 4.7221 -0.361045 12.3455 0 0 0 0.697546 5 6207 4 3483 6 6955 2 4009 1 5799
2373 4.4816 -0.40712 12.6009 0 0 0 0.54316 5 6206 4 3482 2 4018 1 5800
2372 4.04287 -0.503521 13.1505 0 0 0 0.873279 5 6205 4 5670 3 9099 6 6978 1 10282
2371 3.57929 -0.577223 13.6219 0 0 0 1.12342 5 6202 4 5664 1 3308
2370 3.37909 -0.619023 13.8455 0 0 0 0.569194 5 6200 4 3986 6 6993 1 5801
2369 4.34239 -0.405485 12.7675 0 0 0 0.893045 5 6199 4 5665 2 7247 6 4031 1 5792
2368 4.48449 -0.376926 12.6136 0 0 0 1.18148 5 6198 4 5667 3 5642 6 12466 1 5790
2367 3.80242 -0.527964 13.4266 0 0 0 0.923932 4 5663 3 9105 5 6197 1 5796 6 6979
2366 3.8216 -0.506231 13.4098 0 0 0 0.56395 4 5659 3 5659 6 12511 5 6196 1 5791
2365 4.31355 -0.38185 12.798 0 0 0 0.678143 5 6194 4 5658 2 7242 6 12454 1 10260
2364 3.15837 -0.631305 14.0794 0 0 0 0.592068 5 6193 4 9796
2363 4.32219 -0.352245 12.7933 0 0 0 0.592805 5 6190 4 9793 2 7238 6 7967 1 10254
2362 3.79129 -0.473526 13.4368 0 0 0 0.367081 5 6189 4 7063 6 6959 1 6554
2361 4.48873 -0.303868 12.6059 0 0 0 0.912513 5 6188 4 5651 3 5628 2 4007 6 6935 1 5780
2360 4.53281 -0.279833 12.5594 0 0 0 0.960157 5 6187 4 5649 3 5623 2 7216 6 6924 1 5777
2359 3.31132 -0.523548 13.9133 0 0 0 1.06877 5 6186 4 3987 3 5663 6 6961 1 5783
2358 3.09376 -0.564057 14.16 0 0 0 0.889759 5 6185 4 9781 3 9111 6 6966 1 5784
2357 3.79027 -0.372524 13.4432 0 0 0 0.81437 5 6180 4 5637 3 9065 6 12430
2356 4.60145 -0.198153 12.4939 0 0 0 1.20717 5 6179 4 5640 3 5615 2 7193 6 12382 1 10210
2355 4.37556 -0.18226 12.7497 0 0 0 1.5641 5 6174 4 5626 3 9027 2 7195 6 6889 1 5759
2354 3.11161 -0.405369 14.1349 0 0 0 1.17523 5 6170 4 5623 3 9071 6 6925 1 5764
2353 4.714 -0.0916714 12.367 0 0 0 0.221877 5 6169 4 9747
2352 4.66471 -0.0814958 12.4333 0 0 0 1.28145 5 6166 4 5619 3 5595 6 6868 1 5747
2351 4.8221 -0.0478617 12.2614 0 0 0 1.92568 5 6165 4 7061
2350 3.47047 -0.299702 13.7623 0 0 0 1.50242 5 6164 4 5615 3 5634 1 5751
2349 3.11559 -0.350764 14.152 0 0 0 0.970824 5 6162 4 9727 6 6905 1 5750
2348 4.13371 -0.15285 13.1056 0 0 0 0.695846 5 6160 4 5609 6 12326 1 5742
2347 4.33944 -0.0946783 12.7885 0 0 0 1.12746 5 6159 4 5606 3 9011 6 12303 1 5738
2346 4.81728 -0.000398946 12.2416 0 0 0 1.25206 5 6158 4 5605 3 8963
2344 3.13955 -0.317666 14.1298 0 0 0 0.845291 5 6156 4 9720 3 5637 6 12374 1 5744
2343 3.86961 -0.193312 13.4164 0 0 0 1.75026 4 5603 3 3607 6 8182 1 5740
2342 3.79767 -0.195859 13.47 0 0 0 1.26237 4 3450 3 5617 5 6154 6 6878
2341 4.24694 -0.0921615 12.8741 0 0 0 2.07956 5 6153 4 5602
2340 3.71266 -0.188381 13.5406 0 0 0 0.696102 4 5600 3 5618 5 6152 6 12331
2339 4.26962 -0.0648741 12.8667 0 0 0 1.43011 5 6151 4 9706 3 9001 2 7177 1 10164
2337 3.64227 -0.160018 13.6697 0 0 0 0.243775 5 6146 4 3446
2336 -1.10163 0.385797 11.7797 0 0 0 1.2339 5 6142 4 5592 3 5602 2 7156 6 6751 1 5730
2335 -1.49564 0.446377 11.4454 0 0 0 0.851885 5 6140 4 9688 2 7152 6 6732 1 5729
2334 -1.67779 0.489774 11.2896 0 0 0 0.25323 5 6139 4 3440
2333 -1.09529 0.414215 11.7984 0 0 0 1.90527 5 6138 4 3441 3 3600 1 10145
2332 -1.64521 0.488979 11.3211 0 0 0 1.14656 5 6137 4 5587 3 5594 2 7140 6 12039 1 5725
2331 -1.38504 0.466918 11.5353 0 0 0 0.877481 5 6136 4 5586 3 8998 2 7151 6 12064 1 5724
2330 -2.06295 0.573914 10.9645 0 0 0 0.398201 5 6132 4 5582 3 5586 2 7123 6 11979 1 5721
2329 -3.20156 0.735915 10.0067 0 0 0 0.26992 5 6129 4 5566 3 8979 2 7011 6 11753
2328 -1.94728 0.575749 11.082 0 0 0 1.01567 5 6128 4 5576 3 5584 2 3961
2327 -1.87885 0.57422 11.1184 0 0 0 0.936981 5 6125 4 5572 3 8984 2 7126 6 12003 1 5712
2326 -3.12468 0.735501 10.0745 0 0 0 1.16639 5 6123 4 5562 3 8974 2 11853 6 11777
2325 -3.15188 0.742194 10.0472 0 0 0 0.563821 5 6120 4 5561 3 8972 2 7014 6 11768
2324 -3.1831 0.748973 10.0201 0 0 0 0.640416 5 6119 4 5558 3 8973 2 7006 6 11750 1 5707
2323 -3.24005 0.76514 9.97382 0 0 0 0.539094 5 6115 4 5556 3 8962 2 6982 6 11728 1 5702
2322 -1.81028 0.586348 11.1896 0 0 0 0.585027 5 6113 4 5565 3 5571 2 7127 6 6702 1 6739
2321 -3.26991 0.779393 9.94582 0 0 0 0.454232 5 6110 4 5551 3 5560 2 6972 6 11716 1 5697
2320 -3.08102 0.765617 10.1086 0 0 0 0.569393 5 6108 4 9635 3 8949 2 7008 6 11770 1 5689
2319 -2.90441 0.744727 10.2544 0 0 0 0.823965 5 6107 4 5545 3 5557 2 7047 6 6591 1 3259
2318 -3.25318 0.788012 9.96267 0 0 0 0.616013 5 6106 4 5543 3 8940 2 6970 6 11714 1 5687
2317 -3.12092 0.770863 10.0731 0 0 0 0.828513 5 6104 4 5542 3 8939 2 6998 6 11755 1 5690
2316 -2.97135 0.754165 10.1972 0 0 0 0.63787 5 6102 4 5540 3 5555 2 7037 6 11796 1 10118
2315 -3.09927 0.775068 10.0922 0 0 0 1.60385 5 6101 4 5544 2 6997 1 3645
2314 -3.01531 0.766381 10.1591 0 0 0 0.73109 5 6100 4 5539 3 8936 2 7019 6 11782 1 5684
2313 -3.18281 0.787664 10.0256 0 0 0 0.762579 5 6099 4 9628 3 8931 2 11772 6 11732 1 5685
2312 -1.24247 0.554536 11.6667 0 0 0 0.803435 5 6097 4 5555 2 7142 6 12058 1 5680
2311 -1.09377 0.536384 11.8043 0 0 0 0.633953 5 6096 4 5554 3 5561 2 7148 6 12078
2310 -3.33068 0.811884 9.89814 0 0 0 0.507049 5 6095 4 5535 2 11705 6 11672 1 5682
2309 -3.23703 0.800334 9.97877 0 0 0 0.756872 5 6094 4 9626 3 8928 2 6965 6 11713 1 5679
2308 -3.21923 0.805366 9.99481 0 0 0 0.875637 5 6091 4 5533 2 6964 1 5671
2307 -3.26355 0.811563 9.95613 0 0 0 0.580624 5 6089 4 9617 3 8922 2 6950 6 11695 1 5673
2306 -3.361 0.832334 9.87236 0 0 0 0.377858 5 6088 4 9604 3 8916 2 11671 1 5669
2305 -2.91474 0.781487 10.2486 0 0 0 0.907554 5 6087 4 5530 3 8910 2 7025 6 11795 1 10095
2304 -3.27854 0.828824 9.94314 0 0 0 0.902256 5 6085 4 5528 2 6945 1 5665
2303 -2.0456 0.684065 11.0005 0 0 0 0.931915 5 6081 4 5532 2 7115 1 5664
2302 -3.40806 0.852517 9.83609 0 0 0 0.283001 5 6080 4 5526 3 5541 2 6913 6 11625
2301 -2.01451 0.686476 11.0168 0 0 0 0.684452 5 6079 4 9615 3 8909 2 5091 6 11945
2300 -3.21691 0.839951 9.99796 0 0 0 0.698324 5 6075 4 5524 3 8901 2 6947 6 6530 1 5657
2299 -3.35227 0.862053 9.88202 0 0 0 0.603287 5 6073 4 6858 3 8897 2 6917 6 11632 1 5655
2298 -2.79807 0.799724 10.3447 0 0 0 0.706425 5 6071 4 5522 3 8899 2 7031 1 3565 6 6588
2297 -3.41726 0.876978 9.82697 0 0 0 0.383288 5 6070 4 5518 3 8891 2 6898 1 5651
2296 -3.43984 0.881201 9.81063 0 0 0 0.458851 5 6069 4 5519 3 8892 2 6893 6 11591 1 5649
2295 -3.2758 0.862036 9.9546 0 0 0 1.27578 5 6068 4 5520 3 8890 2 6928 6 11656
2294 -3.49035 0.909446 9.77304 0 0 0 1.95206 5 6065 3 5532 6 11566 1 3246
2293 -3.10353 0.858156 10.0969 0 0 0 0.484893 5 6064 4 5514 3 5533 2 3504 6 6544 1 3248
2292 -3.17362 0.869743 10.0417 0 0 0 0.569253 5 6063 4 5513 3 5534 2 6937 6 6524 1 5637
2291 -3.13379 0.865519 10.0687 0 0 0 0.571531 5 6062 4 9567 3 8883 2 6944 6 11701 1 5639
2290 -3.4437 0.902308 9.80638 0 0 0 0.500883 5 6061 4 9562 2 11593 1 10053
2289 -3.42607 0.901738 9.82167 0 0 0 0.565646 5 6060 4 9561 3 8880 2 6889 6 11587 1 5638
2288 -2.81292 0.832294 10.3396 0 0 0 0.369343 5 6059 4 9565 6 8242
2287 -3.40607 0.906043 9.84072 0 0 0 0.674509 5 6056 4 5508 3 6663 2 6888 6 11590 1 5635
2286 -2.87757 0.853185 10.291 0 0 0 0.373552 5 6054 4 9558 3 6662 2 6981 6 11775 1 5632
2285 -1.10751 0.655561 11.8046 0 0 0 0.286759 5 6053 4 5516 2 12013
2284 -2.94678 0.865762 10.2275 0 0 0 0.575583 5 6052 4 5506 3 8872 2 6966 1 5631
2283 -3.48688 0.932324 9.77505 0 0 0 0.299178 5 6051 4 5503 2 6863 6 11558
2282 -3.46763 0.934723 9.78878 0 0 0 0.677403 5 6050 4 5502 3 8867 2 11560 6 11563 1 5629
2281 -3.37586 0.926861 9.87019 0 0 0 0.876209 5 6048 4 5501 3 8864 2 6880 6 11582
2280 -3.44028 0.940691 9.81024 0 0 0 1.17662 5 6046 4 5499 3 8865 6 6457 1 5626
2279 -2.76739 0.866066 10.3834 0 0 0 0.206245 5 6045 4 5500
2278 -3.4915 0.958524 9.77092 0 0 0 0.63002 5 6041 4 9531 2 11534 3 7164 6 11537 1 5623
2277 -2.70856 0.874026 10.4314 0 0 0 0.832451 5 6040 4 5497 3 5520 2 6990 1 5622 6 6581
2276 -3.45123 0.960207 9.80477 0 0 0 0.665439 5 6039 4 5493 3 8854 2 11541 1 5619
2275 -2.94163 0.90774 10.2457 0 0 0 1.11958 5 6038 4 5496 2 6946 1 5618
2274 -3.47287 0.98045 9.79113 0 0 0 0.651435 5 6037 4 9516 2 11521 6 11533 1 5616
2273 -3.17494 0.947783 10.0503 0 0 0 0.580621 5 6035 4 5489 3 5514 6 6494 1 3231
2272 -2.79198 0.91749 10.3662 0 0 0 0.767074 5 6034 4 5485 2 6958 1 5609
2271 -3.5156 0.992466 9.75657 0 0 0 0.718439 5 6033 4 5484 3 8842 2 6829 6 11522 1 5611
2270 -3.49302 0.990738 9.77279 0 0 0 1.01458 5 6032 4 5483 3 5510 2 8011 6 6436 1 3229
2269 -2.02363 0.838258 10.9997 0 0 0 0.991467 5 6030 4 9511
2267 -3.39333 0.989037 9.8616 0 0 0 0.726444 5 6023 4 9503 3 8836 2 6853 6 11555 1 5608
2266 -1.75701 0.812449 11.2473 0 0 0 0.63647 5 6021 4 5487 2 7100 6 11938 1 10002
2265 -2.67011 0.918328 10.4733 0 0 0 0.799579 5 6019 4 9501 3 8831 2 6975 6 11787 1 5604
2264 -3.48429 1.00507 9.78869 0 0 0 0.951434 5 6017 4 5476 2 6827 6 6432
2263 -2.95914 0.951789 10.228 0 0 0 0.486312 5 6016 4 5477 3 5507 2 6920 6 6536 1 3567
2262 -3.52149 1.0176 9.75565 0 0 0 0.362313 5 6012 4 9495 2 6809 6 11510 1 5596
2261 -3.50166 1.01823 9.76991 0 0 0 0.630851 5 6011 4 5471 3 8828 2 6812 6 11516 1 5595
2260 -3.5399 1.02463 9.73661 0 0 0 0.640325 5 6009 4 5468 2 11462 3 8825 1 5594
2259 -3.12737 0.981852 10.0872 0 0 0 0.531665 5 6006 4 5470 3 8823 2 6885
2258 -2.89171 0.961698 10.2872 0 0 0 1.06073 5 6005 4 5467 3 5496 6 11718 1 9985
2257 -3.06359 0.980172 10.1458 0 0 0 0.88687 5 6004 4 5466 3 5501 2 6892 6 6503 1 3222
2256 -1.74747 0.856199 11.2637 0 0 0 0.76437 5 6003 4 5465 3 6660 2 7090
2255 -3.52092 1.04348 9.75588 0 0 0 0.693729 5 6002 4 9483 3 8817 2 5212 6 6417 1 5588
2254 -2.12167 0.89979 10.9447 0 0 0 0.438276 5 6001 4 5461 3 5488 2 4519 6 6621 1 3217
2253 -3.42158 1.03844 9.84475 0 0 0 0.289088 5 5999 4 5455 2 6815
2252 -1.8637 0.878292 11.1629 0 0 0 0.795463 5 5998 4 5460 3 5485 2 7082 6 11913 1 5590
2251 -3.538 1.05589 9.74137 0 0 0 0.993521 5 5997 4 5454 2 4425 3 5484
2250 -3.56023 1.0599 9.72557 0 0 0 0.604371 5 5996 4 9473 2 11435 1 5581
2249 -1.0367 0.805229 11.864 0 0 0 1.56239 5 5994 4 5457 3 5480 2 11988 6 6713 1 9975
2248 -3.57997 1.06574 9.71144 0 0 0 0.393502 5 5993 4 5451 1 3212
2247 -2.62793 0.971552 10.5129 0 0 0 0.732523 5 5992 4 5453 3 8810 2 6949 6 11773 1 5580
2246 -3.29607 1.04221 9.95026 0 0 0 0.806257 5 5991 4 9468 3 8807 2 6832 6 8343 1 5577
2245 -1.11175 0.824691 11.8021 0 0 0 0.498553 5 5990 4 5452 1 9963
2244 -3.43318 1.06427 9.83377 0 0 0 0.921041 5 5989 4 3371 2 4145 6 6422 1 5576
2243 -1.33981 0.855007 11.5983 0 0 0 0.189507 5 5986 4 3377 3 3535 2 7105
2242 -3.60386 1.07964 9.68469 0 0 0 1.09934 5 5985 4 3375 1 5574
2241 -2.71639 0.992475 10.4422 0 0 0 0.411407 5 5984 4 5450 2 6931 6 6557 1 3210
2240 -3.45563 1.07059 9.8196 0 0 0 0.802791 5 5983 4 9450 3 5477 2 6790 6 6419 1 3204
2239 -2.79064 1.01127 10.3773 0 0 0 0.555836 5 5981 4 5447 3 8802 2 6909 6 11715 1 5568
2238 -2.64798 0.995003 10.5009 0 0 0 0.540245 5 5980 4 5448 3 8801 2 8004 1 9944
2237 -2.15487 0.942094 10.9192 0 0 0 0.681033 5 5979 4 3373 3 5475 2 3921 6 6609 1 5575
2236 -3.3734 1.07278 9.88714 0 0 0 1.20734 5 5976 4 9449 3 5469 2 6801 6 11519 1 5561
2235 -1.79941 0.915358 11.2214 0 0 0 0.38146 5 5975 4 3368 3 5465 2 7075 6 11902 1 9945
2234 -2.12922 0.940774 10.9346 0 0 0 1.37631 5 5974 4 3372 3 3536 2 3920 6 6612 1 3213
2233 -3.0435 1.0485 10.167 0 0 0 0.368676 5 5972 4 7049 6 6482
2232 -2.72508 1.02325 10.428 0 0 0 1.04324 5 5971 4 3363 3 5454 2 2595 6 3788 1 3199
2231 -3.39001 1.0897 9.8722 0 0 0 0.772868 5 5970 4 9435 3 5456 2 6789 6 11509 1 5554
2230 -3.24243 1.08146 10.0027 0 0 0 0.627257 5 5968 4 5436 3 8794 2 6816 6 11544 1 5548
2229 -2.08256 0.969934 10.9777 0 0 0 0.561357 5 5967 4 5439 3 8786 2 7027 6 6611 1 5556
2228 -3.57622 1.12193 9.71219 0 0 0 0.953688 5 5963 4 5431 3 8788 2 6739 6 6391 1 5536
2227 -1.69255 0.93499 11.3153 0 0 0 0.87477 5 5962 4 5437 3 5450 2 7076 6 7949 1 5558
2226 -3.20505 1.08521 10.0402 0 0 0 1.10574 5 5961 4 5433 3 8778 2 6823 6 11560 1 5541
2225 -2.01723 0.971735 11.0333 0 0 0 0.541743 5 5960 4 5435 3 5448 2 7036 6 11870 1 5552
2224 -3.18835 1.08484 10.0521 0 0 0 0.635662 5 5959 4 9423 3 8784 2 11492 6 11561 1 5540
2223 -3.05227 1.07417 10.1636 0 0 0 0.379121 5 5958 4 5430 3 8781 2 6855 6 7938 1 5545
2222 -2.5919 1.02675 10.5506 0 0 0 0.611245 5 5957 4 5432 3 8783 2 6930 6 11752 1 5546
2221 -3.27105 1.09852 9.97662 0 0 0 0.926332 5 5956 4 5427 2 4156 3 3531 6 3738 1 5542
2220 -2.71964 1.04436 10.4438 0 0 0 0.346162 5 5955 4 5429 3 8776 1 5544
2219 -3.41524 1.11434 9.8532 0 0 0 0.414214 5 5954 4 5425 3 8780 2 6767 1 5533
2218 -3.34141 1.10651 9.91332 0 0 0 0.643066 5 5953 4 5424 3 8779 2 6787 6 11513 1 5535
2217 -3.5608 1.13216 9.72436 0 0 0 0.610096 5 5951 4 9413 3 8775 2 6736
2216 -3.06478 1.0912 10.1514 0 0 0 1.53229 5 5950 4 9407 3 4218 2 11518 1 5529
2215 -3.17017 1.10091 10.0734 0 0 0 0.420471 5 5949 4 5420 3 8771 2 6819
2214 -1.7138 0.961844 11.3057 0 0 0 0.610519 5 5947 4 5421 2 5150
2213 -2.91364 1.07869 10.2811 0 0 0 0.518272 5 5946 4 5417 3 8769 2 6862 6 11635 1 9899
2212 -2.79658 1.06868 10.3814 0 0 0 0.560178 5 5945 4 5416 3 5442 2 2940 6 8153 1 5528
2211 -2.09799 1.00051 10.9776 0 0 0 1.09953 5 5944 4 9411 2 7003
2210 -3.58062 1.14656 9.71588 0 0 0 0.61643 5 5942 4 9396 3 8770 2 6723 6 11450 1 5524
2209 -1.63135 0.962396 11.3654 0 0 0 0.664943 5 5941 4 9403 2 11927 1 5537
2208 -3.54619 1.14686 9.74593 0 0 0 0.705827 5 5939 4 5411 3 8764 2 6732 6 11456 1 3189
2207 -1.04915 0.911912 11.8621 0 0 0 0.803404 5 5936 4 9401 3 8759 2 7109 6 11999 1 9909
2206 -3.61581 1.15759 9.68719 0 0 0 0.460163 5 5935 4 5409 2 6709 6 11431 1 5519
2205 -3.6332 1.16968 9.67352 0 0 0 0.623215 5 5930 4 5404 3 5436 2 6695 6 6373 1 3185
2204 -1.61084 0.983434 11.3818 0 0 0 0.421924 5 5927 4 3350 3 5425 2 7069 6 11906 1 5526
2203 -2.04305 1.02765 11.0134 0 0 0 0.916812 5 5926 4 5403 3 8744 2 6989 6 11849 1 9888
2202 -2.13826 1.03936 10.9354 0 0 0 0.558651 5 5924 4 5400 3 8745 2 6978 6 11837
2201 -2.77571 1.10246 10.3973 0 0 0 1.11908 5 5923 4 5393 3 8753 6 6511 2 6867 1 5516
2200 -3.06769 1.13962 10.1549 0 0 0 0.733542 5 5920 4 3993 3 5422 2 6808 6 6456
2199 -3.6341 1.19338 9.676 0 0 0 0.501624 5 5919 4 9366 3 8746 2 11311 6 11414 1 5504
2198 -1.61863 1.01341 11.3771 0 0 0 0.238675 5 5917 4 5387 3 5412 2 7056 6 11893
2197 -3.12421 1.15098 10.1166 0 0 0 0.4285 5 5916 4 5384 2 4142 6 3742
2196 -2.74852 1.12 10.4285 0 0 0 0.56057 5 5915 4 5383 3 5413 2 6866 6 6508 1 5509
2195 -2.57849 1.10473 10.5642 0 0 0 0.637894 5 5914 4 5382 3 8732
2193 -3.65181 1.20311 9.66405 0 0 0 0.818806 5 5912 4 7046 3 8738 2 6674 6 11404 1 5500
2192 -3.35772 1.17737 9.91192 0 0 0 0.499254 5 5911 4 5379 3 8737 2 6742 6 6406 1 5501
2191 -3.50805 1.19583 9.78547 0 0 0 0.526872 5 5910 4 5376 3 8734 2 6703 6 11444 1 5499
2190 -2.79289 1.13395 10.3889 0 0 0 0.499496 5 5908 4 5374 3 8722 2 6858 6 6493 1 5502
2189 -1.95969 1.0611 11.0806 0 0 0 0.19785 5 5907 4 9359
2188 -3.61261 1.21246 9.69635 0 0 0 0.50739 5 5906 4 9357 3 8728 2 6673 1 5494
2187 -3.57822 1.21266 9.72655 0 0 0 1.04226 5 5905 4 9352 3 8717 2 6679 6 11419
2186 -3.46918 1.20124 9.8114 0 0 0 0.568866 5 5904 4 5372 3 6658
2185 -3.38325 1.1962 9.88806 0 0 0 0.809328 5 5903 4 9351 3 8719 2 6728 6 11470 1 5492
2184 -3.64718 1.22753 9.66752 0 0 0 0.577424 5 5902 4 9348 3 7397 2 11273 1 5487
2183 -3.49023 1.21753 9.80352 0 0 0 0.559596 5 5901 4 5367 3 8712 2 6692 6 11437 1 5483
2182 -2.63949 1.14935 10.5173 0 0 0 1.2768 5 5900 4 3331 3 5400 2 4403 1 5491
2181 -3.54576 1.2283 9.75685 0 0 0 0.979197 5 5898 4 5363 3 5407 2 4434
2180 -3.50934 1.22197 9.7862 0 0 0 0.752926 5 5897 4 9340 3 8706 2 6685 6 11429 1 5484
2179 -2.65791 1.15011 10.5068 0 0 0 0.0471777 5 5896 4 5365
2178 -3.66465 1.23842 9.65624 0 0 0 0.754888 5 5895 4 5366 3 8711 2 6650 6 6354 1 3169
2177 -3.52777 1.22837 9.77251 0 0 0 0.519618 5 5894 4 5364 2 11306 6 11421 1 5478
2176 -3.62602 1.23938 9.68966 0 0 0 0.738777 5 5893 4 9335 2 11268 6 11391 1 9827
2175 -2.53056 1.14959 10.6173 0 0 0 0.450219 5 5891 4 5359 3 8694 2 6874 6 11709 1 5486
2174 -3.3424 1.22162 9.92901 0 0 0 0.422962 5 5889 4 5360 3 8701 2 6719 6 6397 1 3168
2173 -3.04879 1.19714 10.1781 0 0 0 0.311292 5 5887 4 5358 3 5397 2 6777 6 6443 1 3170
2172 -1.5782 1.07493 11.4029 0 0 0 0.121852 5 5886 4 7044
2171 -3.21688 1.21336 10.0428 0 0 0 1.0167 5 5885 4 5357 3 5398 2 3928 6 11495 1 5466
2170 -3.50909 1.24804 9.79056 0 0 0 0.563997 5 5883 4 9325 2 6670 6 11418 1 5461
2169 -2.55565 1.16876 10.5998 0 0 0 0.50104 5 5879 4 5354 3 8687 2 6865 6 11687 1 5469
2168 -3.66295 1.26364 9.65733 0 0 0 0.781139 5 5878 4 5355 3 8691 2 11253 1 5460
2167 -3.55498 1.25575 9.75375 0 0 0 0.18187 5 5877 4 9323
2166 -2.57445 1.18088 10.5877 0 0 0 0.300048 5 5874 4 9319 2 11552 1 9823
2165 -1.08578 1.05993 11.8629 0 0 0 1.03285 5 5872 4 5351 3 8671
2164 -3.64473 1.28208 9.67998 0 0 0 0.751308 5 5871 4 5347 3 8686 2 6631 6 11367 1 5450
2163 -3.16985 1.24929 10.0848 0 0 0 0.788638 5 5870 4 5343 3 8683 2 6733 6 11490 1 5452
2162 -1.96398 1.1511 11.0966 0 0 0 0.442915 5 5869 4 5342 3 8669 2 6942 6 11827 1 9818
2161 -3.58819 1.29014 9.72287 0 0 0 1.06663 5 5868 4 9303 2 11249 6 6348
2160 -3.28671 1.26815 9.98385 0 0 0 0.573952 5 5866 4 9301 3 8679 2 11332 6 11462 1 3647
2159 -1.26639 1.11238 11.675 0 0 0 0.308181 5 5863 4 9285 2 11888
2158 -1.01554 1.08652 11.8976 0 0 0 1.42548 5 5862 4 6849 3 5371 1 9820
2157 -3.23636 1.27532 10.0227 0 0 0 0.715427 5 5860 4 6848 3 8675 2 6698 6 6398 1 3648
2156 -2.00081 1.17528 11.0685 0 0 0 0.504506 5 5859 4 9283 3 8658 2 6923 6 11806 1 5455
2155 -3.69211 1.31608 9.63978 0 0 0 0.776884 5 5857 4 5336 3 8676 2 6611 1 5431
2154 -3.61265 1.31071 9.70858 0 0 0 0.653705 5 5856 4 5333 2 6623 6 6334 1 5434
2153 -3.31361 1.28978 9.96011 0 0 0 0.541607 5 5855 4 5332 3 8666 2 6677 6 11452 1 5435
2152 -1.28816 1.12901 11.6732 0 0 0 0.997907 5 5853 4 5328 3 5362 2 7040 1 9809
2151 -3.36467 1.29976 9.91481 0 0 0 0.698698 5 5852 4 5329 3 5375 2 6664 6 6379
2150 -2.53013 1.23473 10.6263 0 0 0 0.536119 5 5850 4 5324 3 8653 2 6842 1 5440
2149 -3.22084 1.29336 10.0467 0 0 0 0.419952 5 5847 4 5327 3 5372 2 6691 6 11465 1 5430
2148 -3.55888 1.32265 9.75476 0 0 0 0.61536 5 5846 4 9272 3 8659 2 6624 6 11376 1 3157
2147 -1.22918 1.14758 11.7259 0 0 0 0.645518 5 5843 4 5319 3 5358 6 11904 1 5448
2146 -3.32702 1.3139 9.95512 0 0 0 0.457452 5 5842 4 5320 2 6662 1 5421
2145 -3.14125 1.30481 10.1269 0 0 0 0.90707 5 5840 4 5316 3 8647 2 6701 6 6405
2144 -3.63206 1.34443 9.69335 0 0 0 0.515468 5 5839 4 7041 3 8652 2 6607 6 11341 1 5418
2143 -3.66724 1.35366 9.66967 0 0 0 0.771679 5 5838 4 5318 3 8649 2 6600 6 11324 1 5413
2142 -3.59255 1.34599 9.73399 0 0 0 1.35267 5 5837 4 9251 3 5367 2 3853 6 6325 1 3153
2141 -3.15308 1.32096 10.1075 0 0 0 0.477705 5 5836 4 5312 3 6656 2 6688 6 11473 1 5417
2140 -1.22847 1.17606 11.7308 0 0 0 0.516814 5 5835 4 5308 3 5351 1 5432
2139 -1.12043 1.17239 11.8189 0 0 0 0.619098 5 5834 4 5305 6 11912
2138 -2.82159 1.30792 10.3837 0 0 0 0.394892 5 5831 4 5306 3 5355 2 6749 6 11543 1 5414
2137 -1.57695 1.21768 11.4327 0 0 0 0.553087 5 5830 4 3316 1 5424
2136 -1.32642 1.19991 11.6359 0 0 0 0.561385 5 5829 4 5303 2 11797 1 9772
2135 -3.6994 1.38022 9.64196 0 0 0 0.713663 5 5828 4 9240 3 8636 2 11148 6 11291
2134 -3.62549 1.37972 9.70561 0 0 0 0.999015 5 5827 4 5307 3 8632 2 6593 6 8876 1 5401
2133 -3.67629 1.38592 9.66136 0 0 0 0.755428 5 5824 4 9236 3 8630 2 6581 6 11300 1 5399
2132 -2.5173 1.30579 10.6438 0 0 0 0.172567 5 5823 4 9232 2 11459 1 5405
2131 -1.98225 1.26582 11.0913 0 0 0 0.627748 5 5822 4 5297 2 6884 1 5416
2130 -3.71302 1.39764 9.6344 0 0 0 0.84888 5 5821 4 5302 2 6573 1 3143
2129 -1.54423 1.25216 11.4501 0 0 0 1.71358 5 5818 4 5292 2 11680 3 5336
2128 -1.07383 1.21729 11.8548 0 0 0 0.47175 5 5817 4 5290 3 5334
2127 -3.5751 1.40556 9.75007 0 0 0 1.57117 5 5815 4 5294 3 8612 2 6592 1 5391 6 6317
2126 -1.15246 1.24262 11.798 0 0 0 1.15162 5 5813 4 5280 2 11790 1 5403
2125 -3.70646 1.42237 9.63905 0 0 0 0.950894 5 5812 4 9222 2 11111 1 5388
2124 -3.49855 1.4094 9.81398 0 0 0 0.480889 5 5811 4 9219 2 8025 6 11344 1 5387
2123 -2.57459 1.34413 10.5964 0 0 0 0.568849 5 5810 4 5285 3 5339 2 6766 6 11580 1 5397
2122 -3.68395 1.43221 9.66169 0 0 0 0.844188 5 5808 4 5288 3 8608 2 6563 6 11262 1 5381
2121 -3.55781 1.41803 9.75661 0 0 0 1.7689 5 5807 4 9217 2 11157 1 3569 6 8863
2120 -3.53336 1.42872 9.78684 0 0 0 0.501906 5 5806 4 9209 2 6583 1 5379
2119 -3.72137 1.44372 9.63357 0 0 0 0.7471 5 5805 4 5283 2 6557 6 11241 1 5375
2118 -3.5942 1.43649 9.73806 0 0 0 1.49942 5 5804 4 5281 3 8594 2 6570 6 11296 1 5380
2116 -1.86552 1.33418 11.2005 0 0 0 0.661389 5 5800 4 3306 3 8565 6 6570 1 5389
2115 -3.62206 1.46864 9.7091 0 0 0 1.00277 5 5798 4 5276 3 3478 2 3829 6 3673 1 2039
2114 -3.60347 1.46618 9.73271 0 0 0 0.598945 5 5797 4 9188 3 8583 2 11105 6 11266 1 5361
2113 -1.67161 1.34052 11.3457 0 0 0 0.370746 5 5796 4 5260
2112 -1.92627 1.35849 11.1404 0 0 0 0.358122 5 5795 4 5261 3 5315 2 11531
2111 -3.70032 1.4823 9.66397 0 0 0 1.67187 5 5793 4 5268 3 8574 2 6545 1 9676
2110 -2.67598 1.417 10.5123 0 0 0 0.739098 5 5792 4 5263 3 5317 2 3889 6 6434
2109 -3.65818 1.48676 9.68685 0 0 0 0.661306 5 5789 4 9170 3 8569 2 11080 6 11235 1 5357
2108 -1.76713 1.37531 11.2758 0 0 0 1.16092 5 5787 4 3300 2 11551 6 11772
2107 -3.71568 1.50506 9.64749 0 0 0 0.747997 5 5786 4 5259 2 5436 6 11198 1 5351
2106 -3.58466 1.49827 9.75167 0 0 0 0.491309 5 5785 4 9162 2 11087 6 11257 1 5355
2105 -3.68877 1.50817 9.66758 0 0 0 1.09278 5 5784 4 6844 2 6531 6 11204 1 5350
2104 -3.55 1.50314 9.78056 0 0 0 0.756315 5 5783 4 5254 2 6552 1 2031
2103 -3.72955 1.51935 9.63726 0 0 0 0.868392 5 5782 4 9156 3 8556 1 5346
2102 -3.62169 1.51352 9.71835 0 0 0 0.814072 5 5781 4 9153 2 11060 6 11230 1 5348
2101 -1.76674 1.40261 11.2785 0 0 0 0.465016 5 5780 4 5245 3 8538
2100 -1.7071 1.40995 11.3348 0 0 0 1.59047 5 5777 4 5243 3 3464 2 4353 1 5360
2099 -3.56452 1.52211 9.77154 0 0 0 0.627489 5 5776 4 5251 2 6543 6 11247 1 5344
2098 -3.6944 1.54068 9.66458 0 0 0 0.713109 5 5774 4 9142 3 8550 2 11024 6 11186 1 5338
2097 -2.54262 1.4783 10.6409 0 0 0 0.196033 5 5771 4 5237 6 11527 1 9659
2096 -1.92343 1.43733 11.1482 0 0 0 1.71263 5 5770 4 5233 2 11470 6 11711
2095 -3.68371 1.56197 9.6799 0 0 0 0.900649 5 5766 4 9128 3 8541 2 11012 1 5331
2094 -1.77187 1.45148 11.2788 0 0 0 0.507969 5 5764 4 5227 3 8515 2 6826 6 11733 1 5353
2093 -3.58655 1.56075 9.76071 0 0 0 0.807605 5 5763 4 5236 3 8537 2 6520 1 5329
2092 -1.06954 1.43206 11.8723 0 0 0 0.762086 5 5759 4 3288 3 5277 2 6907 6 8160 1 5352
2091 -3.72149 1.58578 9.65353 0 0 0 1.21393 5 5758 4 5231 3 8534 2 6480 6 11150 1 9598
2090 -3.69468 1.58487 9.67024 0 0 0 0.543757 5 5755 4 9113 2 10989 6 11161 1 5319
2089 -3.60305 1.58614 9.74359 0 0 0 0.559085 5 5753 4 5229 2 6497 6 7921
2088 -1.27995 1.4585 11.6987 0 0 0 0.959963 5 5751 4 5214 3 5275 2 6873 1 9647
2087 -3.07641 1.56167 10.192 0 0 0 0.653379 5 5750 4 5220 3 5296 2 6586 6 11389 1 5325
2086 -2.49577 1.52601 10.678 0 0 0 0.40456 5 5749 4 9086 2 11300 6 8408
2085 -2.53968 1.5334 10.6412 0 0 0 0.451324 5 5748 4 5215 3 8506 2 6666 6 11512 1 5335
2084 -2.46739 1.52656 10.7065 0 0 0 0.564446 5 5747 4 5216 3 5288 2 6678 6 11526 1 5336
2083 -1.31989 1.47339 11.6677 0 0 0 0.893552 5 5746 4 3283 3 5272 2 6864 1 9639
2082 -2.55848 1.55083 10.6312 0 0 0 0.756936 5 5744 4 5211 3 8499 2 6652 6 11502 1 9610
2081 -3.58963 1.60733 9.7546 0 0 0 0.471794 5 5743 4 5218 3 5298 6 6265 1 3101
2080 -1.81716 1.51666 11.2469 0 0 0 0.687117 5 5741 4 5200 2 6781 1 9626
2079 -3.09295 1.58951 10.1793 0 0 0 0.378361 5 5740 4 5209 3 5281 2 6571 6 6341 1 3105
2078 -1.35349 1.51246 11.6276 0 0 0 0.612434 5 5736 4 3275 3 5263 2 4333 6 6578
2077 -3.01763 1.60446 10.2452 0 0 0 1.64045 5 5735 4 5199 3 5279 2 11124
2076 -2.32147 1.57268 10.8588 0 0 0 0.426072 5 5734 4 3278
2075 2.06974 1.48979 12.1571 0 0 0 1.14437 5 5732 4 3258 3 5142 2 3205 6 6714
2074 2.43431 1.49523 12.0788 0 0 0 0.737649 5 5731 4 5126 3 4224 2 3083 6 6720 1 5354
2073 -3.63033 1.64824 9.72001 0 0 0 0.04412 5 5730 4 9061
2072 -3.59597 1.64816 9.75538 0 0 0 0.373889 5 5729 4 9060 3 8495 2 10957 6 6260 1 5281
2071 -3.04217 1.62437 10.2237 0 0 0 0.421423 5 5727 4 5192 3 5271 2 6564 6 11366 1 3096
2070 -3.71642 1.65966 9.66052 0 0 0 0.692293 5 5726 4 9059 3 8493 2 10921 6 11116 1 5274
2069 -2.33178 1.59316 10.8289 0 0 0 1.21498 5 5725 4 3273
2068 -2.49895 1.60281 10.6845 0 0 0 0.844546 5 5724 4 5184 2 6638 3 8470 6 11491
2067 -2.4697 1.60724 10.7103 0 0 0 0.643165 5 5723 4 5181 3 8466 2 6639 6 11497 1 5298
2066 -1.77544 1.57991 11.2805 0 0 0 0.873116 5 5721 4 5175 3 5257 2 6751 1 5303
2065 -3.72767 1.67698 9.65513 0 0 0 1.31842 5 5719 4 9047 1 5253
2064 -3.67656 1.67097 9.69402 0 0 0 0.859834 5 5718 4 9046 2 10920 1 5263
2063 -2.99457 1.64812 10.2585 0 0 0 0.883618 5 5717 4 9032 3 5262 1 9551
2062 -1.22533 1.56285 11.7481 0 0 0 0.803052 5 5716 4 5163 3 5252 2 6840 6 11792 1 9590
2061 -3.66761 1.68878 9.70442 0 0 0 0.473574 5 5714 4 9033 2 10907 6 11118 1 5248
2060 -3.69201 1.69255 9.68094 0 0 0 0.746103 5 5712 4 9034 3 8474 2 6433 1 5249
2059 -2.60784 1.64788 10.5946 0 0 0 0.680938 5 5711 4 5170 1 9542
2058 -3.60266 1.70239 9.76031 0 0 0 0.736198 5 5708 4 9025 2 6445
2057 -2.50853 1.65595 10.6792 0 0 0 0.712844 5 5705 4 5159 2 11211 3 8446 6 11474 1 9538
2056 -2.5877 1.66062 10.6114 0 0 0 0.495341 5 5702 4 5162 1 5267
2055 -3.04662 1.68691 10.2288 0 0 0 0.612186 5 5699 4 5164 3 8458 2 11073 1 5247
2054 -2.6102 1.6719 10.5956 0 0 0 0.368323 5 5697 4 5156 2 6599 6 11453 1 5262 3 8442
2053 -3.72123 1.7255 9.66127 0 0 0 0.858047 5 5696 4 5171 3 6822 2 6420 6 6217 1 3071
2052 -3.09782 1.69513 10.1801 0 0 0 0.507005 5 5695 4 9001 2 11047 1 5242
2051 -2.74335 1.68483 10.478 0 0 0 0.365613 5 5693 4 6839 3 8441 2 11139 1 5251
2050 2.47144 1.60272 12.0804 0 0 0 0.839942 5 5691 4 2286 3 8157 6 4512 1 9617
2049 -3.07975 1.70513 10.1974 0 0 0 0.434183 5 5690 4 5157 3 6654 2 6527 6 11321 1 5239
2047 -2.59039 1.69102 10.6052 0 0 0 1.42893 5 5687 4 8980 2 11175 6 6384 1 5240
2046 -2.4994 1.68309 10.686 0 0 0 0.429949 5 5686 4 5145 3 8435 2 11196 1 9514
2045 -2.4771 1.68662 10.7087 0 0 0 0.508264 5 5685 4 5142 2 6606 6 11468 1 5250
2044 -3.13305 1.71548 10.1546 0 0 0 0.92097 5 5683 4 5154 3 8443 1 5224
2043 -3.64838 1.7411 9.72333 0 0 0 0.818226 5 5681 4 8993 3 8454 2 10876 1 5206
2042 -3.06104 1.71618 10.2138 0 0 0 0.401224 5 5680 4 5149 3 5251 2 6523 6 11320 1 5223
2041 2.75994 1.62303 12.0184 0 0 0 1.25016 5 5678 4 5058 3 5063 2 11524 3 8114 6 6712
2040 -2.68059 1.70557 10.5346 0 0 0 0.303674 5 5677 4 5141 3 8433 2 6575 6 11420 1 5236
2039 -1.28453 1.64931 11.7021 0 0 0 0.485766 5 5676 4 5127 3 5230 2 6785 1 5272
2038 -3.40392 1.73609 9.93023 0 0 0 1.34091 5 5673 4 5151 3 5255 6 11180
2037 3.20498 1.64106 11.9265 0 0 0 0.952449 5 5671 4 5026 3 5047 2 6821 6 12031 1 5326
2036 3.23469 1.64763 11.9253 0 0 0 1.13146 5 5668 4 3217 2 6817 6 12029 1 5324
2035 2.72158 1.64999 12.0268 0 0 0 0.514589 5 5667 4 5031 2 11497 6 12014 1 5318
2034 -1.23774 1.67073 11.73 0 0 0 0.734099 5 5666 4 5114 2 11432
2033 -3.06141 1.7575 10.2162 0 0 0 0.544254 5 5661 4 5130 3 8421 2 6496 6 11289 1 5200
2031 -3.67209 1.78807 9.70797 0 0 0 1.18869 5 5658 4 5133 3 8431 2 6401 6 11061
2030 -3.03177 1.76272 10.2481 0 0 0 0.644412 5 5657 4 5128 3 8415 2 6500 6 11299 1 3060
2029 2.03782 1.6785 12.1812 0 0 0 0.467401 5 5655 4 5029
2028 -2.8146 1.75907 10.4318 0 0 0 1.39664 5 5654 4 5121 3 8411 2 11072 6 11361 2 11066 1 5199
2027 -1.82258 1.72345 11.2512 0 0 0 0.976768 5 5653 4 5105 2 11284 1 5219
